VERSION .7
FIELDS x y z
SIZE 4 4 4
TYPE F F F
COUNT 1 1 1
WIDTH 1865
HEIGHT 1
VIEWPOINT 0 0 0 1 0 0 0
POINTS 1865
DATA ascii
15.9094 -11.8608 25.4387
15.319 -11.6703 25.4556
14.8644 -11.6506 25.4683
17.619 -3.49881 25.3165
17.6775 -1.91574 25.2641
17.3504 -2.79595 25.3054
17.0605 -1.94858 25.2325
16.8465 -2.5332 25.2595
16.5552 -1.96172 25.2527
16.5356 -2.65144 25.2756
15.9678 -0.871308 25.2429
15.2647 -1.42965 25.3102
14.9832 -0.877877 25.3336
14.7351 -0.477183 25.3335
14.6824 0.179691 25.3181
16.2466 -0.385221 25.2297
17.1577 -0.299828 25.2269
17.399 -0.923858 25.2154
17.2288 -3.72214 25.3451
14.3029 -0.188158 25.3657
14.5364 -2.28359 25.392
14.5478 -3.32145 25.4234
15.2839 -2.86164 25.3419
16.2017 -3.38714 25.3053
18.6365 2.18316 25.0754
17.9057 2.01237 25.1747
20.0042 3.0568 24.9992
20.5948 3.12249 24.9513
25.7897 19.1108 10.3375
25.8092 19.413 9.67917
25.8564 19.3736 8.75482
25.8991 21.1011 7.19706
25.8786 18.7627 8.22246
25.65 14.5981 13.5272
25.6809 15.0185 12.855
25.6705 17.2519 12.7287
25.6927 18.3751 12.2418
25.7116 18.5919 11.7598
25.7906 20.6939 10.2735
25.647 15.6556 13.7355
25.5571 13.9806 15.2791
25.5512 12.4107 15.3778
25.5113 11.7144 16.0395
25.5558 10.8211 15.4812
15.5164 -71.7481 25.9168
15.7374 -72.3195 25.8705
16.1625 -72.6874 25.8505
16.8367 -72.8976 25.8573
16.6608 -71.4722 25.8424
17.2275 -72.51 25.8721
16.8031 -73.2983 25.8664
16.4945 -73.9486 25.8434
14.6917 -74.9142 25.7589
14.7421 -74.1982 25.8134
14.3515 -74.5529 25.7677
14.4327 -73.7778 25.8543
14.3134 -71.6824 25.9003
15.8585 -71.3342 25.84
14.3643 -75.9783 25.7713
16.9636 -78.1591 25.7972
16.4887 -77.0096 25.7751
16.2613 -78.2971 25.748
16.7402 -79.1379 25.7846
16.2659 -79.3612 25.7605
15.1617 -77.9949 25.8302
14.281 -78.862 25.9197
15.0229 -77.9358 25.8229
14.8079 -79.4335 25.8612
15.3906 -78.8883 25.7986
14.8579 -76.2082 25.7889
15.0964 -76.7272 25.8257
15.5079 -75.7616 25.768
15.7922 -77.3249 25.7942
15.6818 -76.2082 25.7983
15.8782 -76.8191 25.7789
16.2573 -75.7156 25.786
16.8144 -76.0243 25.7926
16.6223 -74.7762 25.8101
17.0105 -75.4528 25.835
17.2017 -74.2376 25.934
17.5393 -74.0143 25.9354
16.3795 -74.7631 25.7896
15.5216 -75.6236 25.7603
15.9578 -73.2983 25.8262
15.2816 -74.7828 25.7894
15.2797 -72.983 25.8574
14.7946 -72.5363 25.8597
15.3233 -71.2357 25.9003
17.1422 -71.3474 25.8544
17.5917 -71.4328 25.8384
18.1748 -83.0726 25.7139
17.6187 -79.8999 25.8776
17.9492 -81.299 25.8385
17.3511 -79.7816 25.9077
14.6221 -81.9756 25.7109
14.4348 -81.2662 25.8007
14.7883 -81.3056 25.7481
14.3677 -80.0509 25.8714
16.4707 -80.0969 25.792
16.0031 -80.6618 25.7795
16.2263 -80.8983 25.7776
15.0869 -80.3006 25.8099
15.757 -79.7159 25.764
15.2728 -80.9377 25.7478
15.817 -80.9049 25.7436
15.5436 -81.2268 25.7054
15.5261 -83.1317 25.7202
15.1223 -82.2975 25.6802
15.0734 -82.9543 25.7031
14.4792 -83.112 25.7271
14.8948 -83.5455 25.6912
14.6515 -84.7936 25.7182
15.3172 -84.7476 25.7196
14.8899 -85.6409 25.6952
15.4684 -87.0072 25.7015
14.7448 -87.0204 25.667
17.846 -85.3191 25.7088
18.0066 -86.5934 25.7447
17.9201 -87.8612 25.7167
16.8204 -87.7758 25.7917
16.5496 -87.2372 25.7815
15.9927 -87.1518 25.744
16.03 -86.6854 25.766
16.0982 -85.1023 25.782
16.1066 -83.2039 25.704
16.1309 -81.9296 25.7461
16.7376 -82.2252 25.7948
17.1835 -80.8129 25.8457
17.0994 -82.2909 25.793
17.5441 -81.8311 25.7809
17.3802 -83.3484 25.7572
17.8732 -81.68 25.815
17.7594 -83.7426 25.7261
17.3805 -87.3882 25.7335
17.302 -85.8971 25.7274
16.8993 -84.6228 25.8267
16.8816 -83.3616 25.7817
16.2952 -83.5455 25.7224
25.9375 23.0455 6.18574
25.9777 23.4987 4.96307
25.9993 25.2657 3.88821
26.0102 25.4891 3.11925
26.0774 23.7221 0.99003
26.046 24.957 1.58082
26.0182 25.003 2.7328
26.0868 26.9802 0.408707
26.0751 26.2904 0.802241
17.8719 -89.1092 25.7066
18.1787 -90.0157 25.7213
20.6001 -96.44 25.6116
19.8976 -96.7815 25.6315
19.6913 -97.7997 25.6134
18.6937 -97.1494 25.6335
18.8874 -98.1084 25.6171
18.8805 -96.3217 25.6818
17.472 -94.6073 25.6286
18.2276 -96.1115 25.6076
17.7766 -96.0327 25.5535
17.7719 -90.9879 25.6626
17.8259 -92.2097 25.741
17.6474 -93.438 25.7363
21.2721 -97.3662 25.6648
19.1055 -102.799 24.7951
20.575 -103.028 24.5587
20.5416 -102.753 24.8926
18.3699 -103.245 24.1485
18.9802 -103.193 24.2664
19.6291 -103.377 23.932
21.4418 -103.081 24.5532
21.6581 -99.6652 25.6907
18.9658 -101.564 25.4726
18.7312 -100.88 25.5411
19.8134 -101.078 25.5716
18.9441 -99.6652 25.5945
19.6755 -99.8097 25.5911
19.7694 -98.4303 25.5833
20.3599 -97.7734 25.619
20.2493 -98.831 25.6087
20.6991 -100.092 25.6143
20.3063 -100.178 25.6222
20.7069 -100.979 25.6218
20.678 -101.623 25.5671
19.5331 -101.636 25.4692
20.5874 -102.017 25.4265
18.888 -102.03 25.3046
18.3854 -99.2448 25.5868
18.888 -102.03 25.3046
18.9084 -102.424 25.0744
20.4389 -102.431 25.1692
20.5874 -102.017 25.4265
23.8143 -105.183 17.8154
23.8758 -104.881 18.9996
24.3623 -104.96 18.4847
22.6394 -105.157 18.3785
23.0964 -105.091 18.5679
23.2649 -105.275 17.8472
21.094 -103.994 22.6466
21.5614 -103.6 23.447
20.8768 -103.889 22.9055
20.2716 -103.436 23.8346
21.1447 -104.644 20.3466
18.3899 -104.671 20.257
18.6228 -104.447 21.0878
18.4439 -103.817 23.022
19.8994 -103.823 22.9986
18.5656 -104.093 22.3686
20.2548 -104.04 22.4695
18.9159 -104.237 21.9126
20.2139 -104.224 21.8863
19.8607 -104.434 21.0675
20.4917 -104.546 20.7046
21.0017 -104.434 21.1126
21.4295 -104.322 21.4
21.641 -104.71 19.9074
21.0342 -104.881 19.178
21.9547 -105.19 18.0566
11.2769 -105.531 -13.6276
13.606 -105.452 -13.6521
12.9608 -105.439 -13.6878
12.9887 -105.452 -12.9483
12.3813 -105.505 -12.2452
10.6818 -105.551 -13.4489
10.9611 -105.577 -11.7687
10.5406 -105.715 -10.3819
11.286 -105.63 -11.0901
11.6948 -105.846 -9.75256
12.8756 -105.571 -11.1787
12.8423 -105.794 -9.98256
13.0893 -105.531 -11.4614
13.7766 -105.774 -10.2041
13.9392 -105.544 -11.5377
10.4629 -105.827 -9.60413
10.2612 -105.853 -9.20127
11.505 -105.886 -9.05532
11.3798 -105.886 -8.68361
13.8432 -105.84 -9.23626
13.8426 -105.452 -12.6087
12.8496 -105.472 -12.1749
12.8765 -105.84 -9.04069
14.5783 -105.754 -10.2522
14.9289 -105.485 -11.7922
15.497 -105.492 -11.7903
15.0618 -105.406 -12.8969
16.3572 -105.367 -12.8676
15.3486 -105.393 -13.2965
16.6643 -105.314 -13.777
14.3899 -105.8 -8.41017
15.1399 -105.807 -9.10586
15.2593 -105.794 -9.68921
15.7246 -105.682 -10.6215
16.1238 -105.643 -10.8663
16.3511 -105.446 -11.9283
16.6734 -105.722 -10.2557
16.0258 -105.774 -9.66956
6.55313 -105.676 -12.3104
6.46197 -105.669 -12.7594
7.64912 -105.662 -12.9992
6.94749 -105.557 -14.0271
7.71954 -105.59 -13.8319
9.84011 -105.577 -12.5721
9.95442 -105.59 -11.3652
9.23159 -105.617 -11.7813
9.03489 -105.643 -10.9286
7.78622 -105.662 -11.0634
9.88856 -105.643 -10.7015
7.67975 -105.735 -10.2423
8.70414 -105.814 -9.74578
7.49771 -105.827 -9.5902
8.41115 -105.906 -8.90599
7.76489 -105.892 -8.80146
7.01078 -105.912 -8.34726
6.36803 -105.906 -8.31685
6.51157 -105.827 -9.49334
6.59062 -105.662 -10.8362
9.86171 -105.866 -8.30464
9.28726 -105.866 -9.09879
9.19102 -105.761 -10.0048
9.0004 -105.623 -13.0575
9.41094 -105.525 -14.0424
15.9751 -105.748 -7.59644
18.6594 -105.761 -7.40026
17.6574 -105.761 -7.5144
17.2335 -105.768 -7.12095
18.3116 -106.569 -2.93536
18.6155 -106.332 -3.38592
19.888 -106.385 -3.15433
19.848 -105.938 -3.75607
20.2178 -105.879 -3.83391
19.184 -105.82 -4.05959
20.0642 -105.748 -4.19242
20.0085 -105.722 -4.49154
20.2297 -105.741 -4.29652
20.8065 -105.741 -4.43461
20.8034 -105.925 -3.87781
20.5091 -106.457 -3.14636
20.073 -106.523 -2.80391
19.2887 -106.536 -2.77782
19.1683 -106.628 -2.06146
21.2681 -105.741 -4.55023
20.5903 -105.807 -6.33629
20.563 -105.814 -5.54939
19.7124 -105.853 -6.01567
19.7619 -105.814 -5.4507
19.7022 -105.84 -5.68088
19.1286 -105.879 -5.5932
19.2307 -105.86 -6.32159
19.6285 -105.774 -6.99963
18.6855 -105.899 -6.04102
18.6927 -105.899 -4.02553
18.4366 -106.05 -3.82067
21.5481 -105.754 -4.28802
21.9782 -106.405 0.485727
21.8536 -106.51 -1.0144
21.6578 -106.438 1.43174
22.1151 -106.424 1.77903
21.9713 -106.516 2.48728
22.3153 -106.477 3.09224
22.2783 -106.359 4.57494
22.2528 -106.339 5.02157
21.9578 -106.221 11.219
21.8541 -106.254 10.554
21.7988 -106.26 9.79187
22.2755 -106.26 8.88373
21.9731 -106.359 6.40022
22.172 -106.352 7.25651
21.7336 -106.365 5.03498
22.0591 -106.28 8.31452
20.763 -106.576 -0.747183
20.999 -106.457 0.336363
21.6726 -106.543 3.17525
21.1144 -106.576 3.15831
20.9873 -106.602 2.48521
20.3172 -106.628 2.7652
20.0357 -106.608 2.42558
18.7643 -106.7 2.73445
19.756 -106.523 1.83646
18.9145 -106.556 1.74385
19.0382 -106.523 1.19675
19.0275 -106.516 0.7766
21.0036 -106.438 4.61656
20.9627 -106.543 3.49602
20.1928 -106.556 3.56494
19.0312 -106.687 3.59227
18.6649 -106.641 4.17868
19.4731 -106.53 4.52167
21.3164 -106.47 1.74785
20.8327 -106.477 1.54809
20.8572 -106.457 0.98385
19.8575 -106.47 1.27717
19.8975 -106.464 0.57738
19.8529 -106.497 0.0992265
18.8528 -106.562 0.0986132
19.9997 -106.589 -0.764642
18.8841 -106.628 -0.590163
19.3858 -106.641 -1.17869
19.0048 -106.661 -1.33745
21.7024 -106.549 2.85563
4.4826 -105.387 -15.5196
3.774 -105.433 -15.3628
2.87535 -105.472 -15.2946
2.44663 -105.518 -14.7085
2.47728 -104.874 -18.9513
4.50809 -104.868 -18.8344
3.49561 -104.822 -19.082
3.93967 -104.92 -18.6908
2.79814 -104.96 -18.5143
3.35236 -105.124 -17.7023
4.30274 -105.419 -15.0046
2.53993 -105.413 -16.0612
3.10905 -105.281 -16.9566
3.81242 -105.308 -16.7299
4.48377 -105.196 -17.2646
4.68901 -105.038 -18.0066
5.32632 -105.255 -16.5934
6.03271 -105.603 -13.6089
4.7159 -105.538 -14.2062
-1.14489 -105.636 -14.5006
-1.93651 -105.682 -14.4005
-3.05253 -105.708 -13.5433
1.07832 -105.577 -14.4631
-0.326009 -105.616 -13.9571
21.5423 -106.306 12.2007
21.7626 -106.208 13.1784
22.3237 -105.925 14.3722
22.2978 -105.866 15.2747
21.5689 -105.952 15.0791
21.9498 -105.827 15.5936
21.8764 -105.406 17.2627
21.7701 -105.525 16.7059
-25.0183 -31.0087 -22.6229
-24.626 -31.9283 -23.5218
-24.6042 -30.8708 -23.5385
-24.3601 -31.0481 -23.8635
-24.1282 -31.0941 -23.9671
-23.1021 -30.1416 -24.0522
-22.9588 -30.6737 -24.0323
-22.6817 -29.4322 -24.0539
-25.0615 -31.2846 -22.312
-25.0602 -29.4979 -22.5213
-25.1047 -29.5833 -22.1899
-23.4162 -33.1633 -23.9857
-23.9284 -33.5508 -23.9844
-23.6349 -34.5755 -23.9712
-24.2691 -32.329 -23.8827
-24.4915 -33.1567 -23.6797
-24.2896 -33.7347 -23.8412
-24.5585 -34.1157 -23.6018
-24.6711 -35.0354 -23.4153
-23.5142 -37.4395 -23.9543
-22.8356 -34.2077 -23.9875
-25.0319 -36.244 -22.3357
-25.096 -37.0651 -21.6636
-25.1064 -30.4438 -21.9713
-23.7386 -29.6161 -24.0081
-24.1201 -30.0431 -23.9833
-24.4107 -30.0431 -23.8489
-24.6115 -29.8198 -23.6007
-24.9557 -30.8051 -22.8804
-25.1278 -34.7726 -21.5936
-25.0648 -35.1142 -22.0945
-25.0475 -32.6903 -22.4342
-25.0115 -32.7888 -22.6494
-24.9786 -33.5771 -22.7616
-24.9171 -34.0106 -22.9697
-24.9934 -35.8105 -22.6663
-24.928 -35.3901 -22.8742
-24.8818 -36.3097 -22.9777
-24.7504 -36.487 -23.2522
-24.5583 -36.336 -23.5801
-24.4294 -36.336 -23.7465
-24.2917 -37.387 -23.8331
-24.3496 -35.0485 -23.8208
-24.2135 -35.6068 -23.8941
-24.1054 -34.2734 -23.9116
-24.0162 -36.3951 -23.932
-23.8727 -35.3047 -23.9503
-23.5657 -36.244 -23.9665
-23.051 -36.7564 -23.9853
-25.0691 -44.2776 -21.1851
-25.0766 -40.0145 -21.5649
-25.1014 -39.108 -21.4307
-24.6761 -37.873 -23.3206
-24.4377 -38.2672 -23.6612
-25.0404 -44.1462 -21.7275
-24.9649 -45.7884 -22.2774
-24.9899 -43.2463 -22.2031
-24.9208 -43.7652 -22.5996
-24.8999 -41.9391 -22.7411
-24.754 -43.3382 -23.0564
-24.6033 -42.2807 -23.3756
-24.4614 -42.977 -23.6528
-24.5043 -41.6501 -23.5472
-24.2821 -42.2478 -23.81
-24.2807 -41.8471 -23.7852
-24.0744 -41.0983 -23.8579
-24.2103 -38.7007 -23.8156
-23.7786 -39.2459 -23.891
-24.0478 -38.1621 -23.9002
-23.3335 -38.1424 -23.9506
-23.7445 -41.0457 -23.8568
-23.2821 -40.3298 -23.862
-24.0194 -43.1412 -23.8816
-24.2074 -44.3498 -23.8041
-24.4915 -44.2185 -23.5436
-24.8548 -44.5009 -22.8023
-25.0556 -42.8784 -21.5703
-25.0885 -40.9932 -21.4581
-24.9665 -41.8537 -22.4074
-24.9906 -40.0276 -22.3444
-24.905 -39.9882 -22.7516
-24.8293 -40.0867 -22.9767
-24.9479 -37.5643 -22.7368
-24.7147 -39.2196 -23.2313
-24.6476 -40.9998 -23.3401
-24.4669 -39.5087 -23.6086
-24.4584 -40.691 -23.6341
-23.0068 -38.7401 -23.8918
-23.9807 -44.5272 -23.8801
-23.4303 -45.0198 -23.8707
-23.1986 -43.7783 -23.9434
-23.635 -43.7324 -23.9403
-23.1856 -42.8325 -23.9635
-23.6025 -42.6485 -23.8999
-23.1202 -40.6779 -23.861
-23.34 -39.3576 -23.8497
-22.5264 -46.8722 -23.8758
-23.1241 -47.4897 -23.8158
-22.4348 -20.5447 -24.1095
-23.1849 -19.855 -24.0873
-23.467 -20.1637 -24.0691
-23.4176 -17.28 -24.094
-23.8771 -17.7793 -24.1227
-24.1109 -16.8334 -24.1779
-24.4206 -15.513 -23.9772
-24.198 -15.0861 -24.075
-24.4189 -13.6081 -24.0214
-24.1627 -13.5818 -24.0757
-24.3693 -12.6031 -24.1227
-23.8829 -12.5768 -24.191
-23.384 -15.2569 -24.1484
-23.09 -16.5575 -24.1445
-23.1421 -17.9435 -24.1166
-22.8892 -17.2866 -24.1277
-22.8486 -12.4717 -24.1489
-23.3488 -12.9447 -24.209
-23.614 -13.8117 -24.1654
-23.9725 -14.2978 -24.0634
-23.7581 -14.6394 -24.1069
-23.8144 -15.4211 -24.1079
-23.1992 -13.9891 -24.1755
-22.5822 -14.3241 -24.144
-25.2812 -19.1587 -21.3096
-25.2646 -16.8137 -21.7597
-25.249 -15.027 -21.9715
-25.1809 -14.8168 -22.5455
-25.2096 -13.1811 -22.4496
-25.1045 -12.8724 -22.9778
-25.2107 -16.8859 -22.3166
-25.1572 -15.559 -22.6828
-25.1095 -14.2518 -22.8903
-25.0527 -16.1436 -22.9893
-24.9058 -14.7182 -23.3158
-24.7147 -16.2356 -23.6324
-24.6453 -14.9416 -23.7422
-25.2868 -13.7526 -21.545
-25.0571 -17.0436 -22.9874
-25.3007 -12.3206 -21.726
-25.1848 -18.3376 -22.326
-25.1152 -17.9172 -22.7771
-24.961 -18.3179 -23.1323
-24.7316 -17.326 -23.6125
-24.5322 -20.4593 -23.8854
-24.4974 -16.8268 -23.9367
-24.373 -19.3229 -24.063
-24.283 -16.9647 -24.1091
-24.1896 -19.6119 -24.153
-24.0942 -20.144 -24.167
-22.8551 -20.8731 -24.0934
-23.1455 -27.1332 -24.0734
-23.3565 -28.125 -24.0278
-24.0279 -26.8178 -24.0304
-23.9805 -28.5257 -23.9946
-24.2487 -28.2564 -23.9243
-24.4421 -28.0068 -23.7954
-24.68 -27.0215 -23.5022
-24.956 -26.5485 -22.9928
-25.0389 -27.8886 -22.634
-25.0916 -25.4384 -22.604
-25.1087 -28.3549 -22.1137
-25.1602 -25.977 -21.9372
-24.9876 -22.6927 -23.0446
-25.0352 -24.4137 -22.8752
-25.1294 -22.5088 -22.5332
-24.8472 -23.389 -23.3084
-24.5327 -23.967 -23.838
-24.4237 -22.9357 -23.9577
-24.3668 -23.724 -24.004
-24.1498 -22.5285 -24.0649
-24.0656 -23.8356 -24.0885
-23.6249 -24.8078 -24.0626
-23.9867 -25.4647 -24.0536
-24.2751 -24.9458 -24.0109
-24.4882 -25.2873 -23.8137
-24.6468 -24.8275 -23.5928
-24.5761 -25.78 -23.685
-23.17 -28.5454 -24.0465
-25.2617 -20.8403 -21.2563
-22.5013 -21.7993 -24.079
-25.1606 -29.0052 -21.5722
-25.2519 -22.8438 -21.3095
-25.2072 -24.1904 -21.808
-25.1409 -21.4709 -22.4357
-25.0417 -20.768 -22.9105
-24.6919 -21.9701 -23.6223
-24.058 -21.2081 -24.1409
-23.7268 -21.7534 -24.0768
-23.8805 -22.7452 -24.0867
-23.1939 -22.9029 -24.1052
-23.4269 -24.0853 -24.0882
-22.9785 -24.0458 -24.1073
-23.1198 -25.7537 -24.0972
-22.4959 -25.8391 -24.085
-23.858 0.0220361 -24.2344
-24.2739 -0.201301 -24.2202
-23.9101 -0.950138 -24.2064
-24.3349 -1.21289 -24.1503
-24.2007 -2.64487 -24.2009
-24.4571 -3.20979 -24.1157
-24.2019 -3.7747 -24.2566
-23.4235 -1.10779 -24.1695
-23.8661 -2.76968 -24.2182
-25.4404 0.0154682 -21.6312
-25.4437 -2.1982 -21.225
-25.4503 -3.09155 -21.1386
-25.3536 -3.72872 -22.1261
-25.2936 -3.73528 -22.5858
-25.1939 -2.87478 -23.0627
-24.8989 -1.58074 -23.6456
-25.2938 -1.34426 -22.7436
-25.3959 -0.562581 -22.0534
-25.3935 -2.17192 -21.8656
-24.8156 0.0745863 -23.8394
-25.0751 0.179686 -23.3717
-25.1225 -1.42309 -23.2786
-24.8199 -2.83537 -23.7395
-24.5694 -3.13096 -24.0364
-24.7422 -1.39024 -23.8439
-24.5369 -1.43622 -24.0486
-23.4835 -2.30987 -24.2017
-22.9614 -2.25732 -24.2418
-23.0647 1.94011 -24.2426
-23.7673 1.53942 -24.1846
-23.4995 0.527829 -24.193
-23.5183 -3.97176 -24.1958
-21.0755 3.03709 -24.2294
-21.5942 1.97952 -24.2181
-22.4368 0.875973 -24.223
-20.6732 2.66924 -24.2215
-20.466 3.10278 -24.2219
-19.9865 3.10278 -24.2327
-19.5117 3.53631 -24.2179
-22.4196 -8.61586 -24.176
-22.7519 -8.87861 -24.1906
-23.6721 -9.64059 -24.1676
-24.823 -9.63402 -23.5912
-24.713 -8.7341 -23.7603
-24.581 -8.01811 -23.9461
-24.362 -7.20358 -24.1059
-24.4297 -4.67462 -24.1765
-23.9442 -4.87825 -24.1881
-23.0411 -5.23953 -24.2128
-24.0298 -3.8995 -24.2801
-25.3716 -5.16727 -21.7916
-25.4394 -5.8964 -21.1052
-25.394 -7.30868 -21.2283
-25.259 -5.4563 -22.6062
-25.2036 -5.60738 -22.9042
-25.1773 -4.14912 -23.1043
-25.2498 -7.52545 -22.5357
-25.2951 -7.44006 -22.2167
-25.3513 -8.70125 -21.666
-25.2238 -8.99685 -22.7049
-22.9446 -5.85042 -24.2236
-25.3671 -11.3879 -21.1509
-25.3461 -10.2975 -21.5575
-25.2864 -9.90333 -22.3184
-25.1913 -11.4864 -22.7625
-25.2348 -10.1332 -22.662
-25.1568 -10.2186 -22.9643
-25.1641 -7.48604 -22.9285
-25.0331 -8.77351 -23.2391
-25.0866 -7.44006 -23.1453
-24.8602 -7.15103 -23.5987
-24.8739 -6.1066 -23.591
-24.6298 -6.44818 -23.9613
-24.8273 -4.58922 -23.7563
-24.6453 -4.09657 -24.0073
-24.4267 -11.828 -24.1125
-24.1305 -11.2039 -24.2003
-24.3644 -9.49607 -24.0813
-23.6277 -10.7441 -24.2412
-23.394 -9.83108 -24.2004
-22.95 -10.8624 -24.1723
-23.3436 -11.9331 -24.1913
-25.0955 -10.9346 -23.1033
-24.7807 -11.2959 -23.6947
-24.5714 -11.7229 -23.9756
-24.6852 -10.107 -23.7922
-24.43 -8.14948 -24.0693
-24.1025 -9.3647 -24.1271
-24.2539 -6.38249 -24.1689
-23.846 -7.85389 -24.1597
-23.524 -5.67963 -24.1661
-23.0926 -7.56486 -24.1797
-22.8963 -6.67151 -24.2063
-22.9642 -53.7037 -23.7995
-23.2263 -51.8579 -23.8135
-23.7306 -53.1782 -23.8047
-23.9214 -50.6361 -23.8222
-24.1017 -52.0156 -23.7444
-24.0911 -50.3274 -23.7853
-24.2726 -50.5704 -23.6653
-24.3004 -48.7837 -23.6405
-24.4377 -49.0925 -23.4797
-24.5215 -46.2679 -23.5107
-24.5499 -49.1713 -23.3024
-24.8184 -49.6311 -22.7618
-24.6889 -50.4456 -23.0209
-24.8276 -51.2273 -22.7033
-24.507 -52.7578 -23.3699
-24.7186 -52.5673 -22.9591
-24.8769 -52.8826 -22.4443
-24.92 -53.1257 -22.1334
-24.4456 -50.7806 -23.449
-24.3246 -51.8251 -23.5847
-24.3368 -52.9615 -23.5903
-24.1217 -53.6249 -23.7503
-25.0164 -46.0774 -21.6616
-24.8518 -46.9708 -22.7837
-24.9181 -47.332 -22.4283
-24.9893 -47.9298 -21.7895
-24.9453 -50.4653 -22.0807
-24.1645 -46.2416 -23.819
-24.3293 -46.0774 -23.7406
-24.1851 -47.4897 -23.7465
-24.8797 -50.7149 -22.4939
-24.9198 -49.0071 -22.384
-23.9366 -46.5963 -23.8465
-23.8003 -47.4897 -23.8145
-23.8717 -49.8676 -23.8255
-24.1447 -48.9479 -23.7368
-23.1528 -49.2435 -23.8633
-22.8633 -50.0252 -23.8648
-22.861 -50.7938 -23.8513
-22.6152 -51.0762 -23.8575
-23.6448 -54.9124 -23.789
-23.8306 -62.1905 -23.7125
-24.0659 -61.3957 -23.6636
-24.283 -61.6913 -23.481
-24.8311 -62.2562 -22.3569
-24.7601 -61.1724 -22.609
-24.8371 -60.8242 -22.3108
-24.7695 -58.6763 -22.6558
-24.8375 -57.9537 -22.385
-24.8681 -55.9371 -22.3573
-24.887 -58.2296 -22.0115
-24.9439 -55.2999 -21.6929
-24.944 -57.2903 -21.5712
-24.9259 -60.5089 -21.5808
-24.8911 -62.0657 -21.9353
-24.7443 -54.6759 -22.8518
-24.13 -54.8532 -23.7104
-23.5256 -55.1488 -23.8041
-23.9252 -56.0619 -23.7697
-23.1606 -57.8814 -23.7347
-22.6541 -57.8486 -23.7444
-23.0505 -59.8192 -23.7151
-22.3582 -60.0426 -23.7178
-22.8508 -55.8845 -23.7921
-23.8013 -57.9077 -23.7578
-24.1068 -57.4348 -23.7095
-24.2013 -56.3509 -23.6688
-24.3376 -57.7304 -23.5192
-24.417 -56.456 -23.416
-24.4939 -57.8026 -23.292
-24.6115 -56.5217 -23.0562
-24.8005 -56.0882 -22.6569
-24.708 -55.5036 -22.9092
-24.37 -55.0372 -23.4998
-24.4749 -59.9178 -23.2748
-24.3416 -59.6681 -23.4812
-24.1539 -59.8849 -23.6783
-24.5231 -60.7848 -23.1487
-24.648 -59.8126 -22.9296
-24.449 -62 -23.1862
-23.8935 -59.4842 -23.7489
-23.7154 -60.7257 -23.735
-23.6416 -59.1952 -23.7559
-23.2247 -62.1971 -23.7288
-22.9915 -61.133 -23.7314
-22.7403 -62.381 -23.6982
-9.72362 14.2434 -23.8279
-10.207 12.9953 -23.9152
-8.7299 14.2302 -23.8027
-8.95019 15.3075 -23.7894
-10.4698 13.9281 -23.8962
-10.6431 14.3944 -23.8832
-12.0847 12.1282 -23.9366
-11.497 15.9907 -23.8597
-12.1249 11.2743 -23.9247
-13.0729 8.00963 -24.0058
-12.8161 9.25769 -24.0095
-12.9081 10.6437 -23.9934
-18.4369 5.12595 -24.1587
-17.8257 5.74998 -24.1501
-17.5564 6.93235 -24.1265
-17.0344 7.15569 -24.1357
-17.1791 8.77817 -24.135
-17.0351 10.1576 -24.1481
-16.0107 10.6437 -24.0981
-15.552 11.3663 -24.0509
-14.9873 8.46944 -24.044
-14.795 9.42848 -24.0399
-14.9122 10.532 -24.0474
-14.3847 8.04904 -24.0172
-13.9218 9.18543 -24.0244
3.65175 21.6923 -23.2736
4.18072 23.0652 -23.2114
3.72026 23.4527 -23.2287
3.27511 23.2163 -23.26
4.40329 22.4083 -23.2184
2.82169 23.0718 -23.2895
3.24591 23.5578 -23.2528
-2.08662 20.8187 -23.4974
-3.32218 21.088 -23.5543
-2.14097 23.2228 -23.5139
-3.12704 22.1127 -23.5459
-3.95096 21.1734 -23.6461
-4.44439 22.5003 -23.6493
-4.99753 22.6185 -23.6103
-5.52685 21.0946 -23.6561
-5.76164 22.6054 -23.6092
-5.83006 19.8793 -23.6469
-8.92811 16.122 -23.7916
-8.47557 17.5212 -23.7436
-7.76361 17.0614 -23.7621
-7.67144 19.1896 -23.7257
-6.64844 20.8778 -23.7005
-7.2773 20.6216 -23.7087
1.26787 23.8009 -23.3471
1.73246 23.4527 -23.3533
2.38251 23.7418 -23.3287
2.23239 24.4906 -23.3602
-1.60119 21.6989 -23.5162
-0.272414 25.2066 -23.4722
-0.649064 24.0177 -23.504
0.910382 25.6664 -23.4379
0.138795 25.8372 -23.4608
1.02911 23.9848 -23.353
-1.65809 24.9898 -23.5606
-0.923618 25.2657 -23.5453
-1.03882 24.4249 -23.5228
24.7935 30.6587 -22.0272
23.2162 29.4106 -22.0619
24.104 32.0644 -22.0656
25.2422 33.4766 -22.0628
24.9864 31.795 -22.0632
22.0297 27.637 -22.2181
21.8109 28.6683 -22.2181
22.1768 28.9508 -22.1599
21.3957 26.9539 -22.2822
19.7125 26.5203 -22.3458
20.3012 26.389 -22.2802
18.1844 25.6861 -22.5633
16.2529 27.0787 -22.5959
16.6523 27.1378 -22.5613
16.8084 25.9357 -22.5832
17.335 26.2839 -22.5726
17.8466 26.4152 -22.6245
15.9871 28.5961 -22.6483
14.7203 27.3677 -22.8188
12.2916 25.627 -22.8929
12.7153 28.0246 -22.945
13.469 27.729 -22.8526
11.4414 23.7746 -22.9745
11.4854 24.6811 -22.9481
11.5013 25.7255 -22.9568
12.0666 27.1641 -22.9519
13.9056 28.4318 -22.8413
9.53944 28.5435 -23.1288
10.5625 26.9342 -23.0128
10.6806 28.2479 -23.062
10.0421 27.9655 -23.0933
18.8816 26.5072 -22.4792
18.871 25.4562 -22.4384
19.6128 25.962 -22.4135
25.7496 31.9067 -21.5992
26.0804 31.2892 -12.9978
26.0958 31.2695 -12.3237
26.0171 32.2286 -17.3761
26.0694 31.4469 -15.725
26.0304 32.7804 -16.7847
26.0662 31.8607 -14.8197
26.0735 31.8082 -14.0005
26.0053 34.8167 -17.5199
25.6331 35.4932 -21.7758
25.7664 35.9268 -21.581
25.7026 33.0562 -21.6897
25.7691 33.3321 -21.584
25.4386 33.319 -21.9533
25.8768 39.7498 -21.2293
25.919 39.2374 -20.7646
25.9554 37.0106 -20.4064
25.8951 37.3391 -21.1791
25.841 37.5624 -21.4008
25.9399 37.6412 -19.8315
25.9611 36.4194 -18.7334
26.1647 26.7765 -6.46113
26.138 29.0362 -7.37177
26.1289 28.4253 -8.73656
26.1328 29.1347 -8.82718
26.1201 28.3202 -3.70813
26.1244 28.6486 -4.79912
26.1407 27.8998 -1.00321
26.1027 28.6815 -2.24842
26.1113 28.688 -0.518566
26.1731 26.9802 -5.86573
26.1378 28.6223 -5.36584
26.142 28.8457 -6.32791
26.1349 31.2039 -10.4999
26.1373 30.0412 -9.54068
26.1319 31.2301 -11.192
5.13064 21.7514 -23.2436
5.36879 23.6958 -23.1975
4.88002 23.814 -23.2262
8.90434 26.5335 -23.1053
6.46673 24.7468 -23.1447
5.10619 24.6483 -23.2548
5.81262 24.5366 -23.1838
7.46616 25.9554 -23.1493
8.99896 27.6502 -23.1389
8.39876 26.8356 -23.1522
7.95431 27.5057 -23.2164
-6.03588 -105.781 -15.4566
-7.06201 -105.866 -14.4784
-6.80669 -105.853 -13.5757
-5.56101 -105.84 -14.133
-3.77708 -105.741 -13.6501
-6.6382 -105.419 -17.5276
-6.4433 -105.531 -16.7312
-6.36031 -105.393 -18.2029
-6.18134 -105.13 -20.0464
-6.64843 -105.334 -19.077
-8.68906 -104.953 -20.8887
-7.29882 -105.439 -18.3208
-8.06838 -105.511 -18.3138
-8.71393 -105.505 -18.8249
-8.78666 -105.551 -18.18
-9.45912 -105.511 -18.7231
-9.4562 -105.564 -17.9474
-9.89673 -105.203 -20.2062
-8.66929 -105.144 -20.4053
-8.93469 -105.327 -19.7027
-8.12425 -105.117 -20.428
-7.78114 -105.36 -19.3961
-7.06219 -105.052 -20.4179
-7.03741 -105.203 -19.8858
-7.23213 -105.768 -15.4615
-6.63969 -105.636 -16.2127
-7.10498 -105.649 -16.1735
-7.42462 -105.564 -16.6909
-7.55028 -105.479 -17.2938
-8.92664 -105.564 -17.388
-8.00442 -105.833 -15.4515
-9.40817 -105.866 -15.258
-9.50786 -105.669 -16.2642
-8.69989 -105.669 -16.4276
-8.60408 -105.728 -16.095
-8.90338 -105.892 -15.1399
-9.81443 -105.59 -17.0214
-13.2572 -104.992 -21.3323
-10.0024 -104.986 -20.8939
-10.8713 -105.045 -20.8731
-11.2429 -105.052 -20.9015
-14.5503 -105.183 -21.0831
-12.5369 -105.183 -20.6337
-11.7764 -105.117 -20.833
-24.8679 -69.0155 -21.7148
-24.8899 -64.2925 -21.7507
-24.8276 -68.8578 -22.0299
-24.814 -67.0383 -22.181
-24.7306 -68.49 -22.5419
-24.7284 -67.0777 -22.5428
-24.4567 -68.2666 -23.1411
-24.3246 -70.9598 -23.2671
-24.2803 -67.0711 -23.4459
-24.1968 -69.3899 -23.4819
-24.1439 -66.0201 -23.581
-24.0072 -67.8528 -23.6109
-23.8405 -66.1121 -23.6665
-23.7076 -68.4374 -23.6439
-23.1684 -67.7805 -23.6442
-22.9373 -68.7658 -23.6314
-22.9666 -70.4343 -23.5933
-24.1105 -70.835 -23.4756
-24.0067 -70.7299 -23.5222
-23.772 -70.835 -23.5762
-23.9339 -69.3373 -23.6226
-23.3584 -66.1646 -23.6421
-22.5363 -65.1596 -23.641
-24.8244 -65.0414 -22.3072
-24.8822 -65.5537 -21.7958
-24.8544 -67.8594 -21.8277
-22.6559 -63.7539 -23.662
-23.1997 -64.4305 -23.6743
-23.0848 -63.7473 -23.6803
-23.804 -64.437 -23.6641
-24.0603 -64.2794 -23.617
-24.1991 -63.6554 -23.5336
-24.3238 -65.3501 -23.3836
-24.3906 -64.8509 -23.2912
-24.4602 -66.92 -23.1959
-24.5711 -65.2647 -22.9628
-24.7421 -65.5669 -22.5805
-24.5286 -63.478 -23.0974
-24.7909 -63.8327 -22.4596
-24.7167 -62.716 -22.6713
-24.8352 -70.9795 -21.7507
-24.7741 -69.7971 -22.2671
-22.4789 -72.556 -23.5151
-22.2125 -72.7071 -23.5102
-22.9594 -72.267 -23.5456
-22.643 -78.8423 -23.4697
-22.4728 -81.3975 -23.4705
-22.5539 -76.6089 -23.5045
-22.3761 -74.796 -23.5122
-22.1873 -89.3786 -23.3885
-22.4888 -88.5378 -23.4236
-22.5458 -87.4408 -23.4299
-22.8139 -86.2256 -23.4359
-22.4778 -84.7739 -23.4212
-22.0971 -83.9199 -23.3748
-22.5546 -92.0586 -23.3808
-22.8121 -93.241 -23.3822
-22.5481 -94.5941 -23.3454
-16.6279 -105.268 -21.2759
-17.2893 -105.111 -21.6877
-17.9572 -105.387 -21.1817
-19.697 -104.96 -22.0776
-18.9662 -105.176 -21.7303
-19.7367 -105.196 -21.8027
-19.3167 -105.327 -21.4775
-20.9298 -105.511 -21.1918
-20.9606 -104.901 -22.215
-21.8366 -104.717 -22.5069
-21.7152 -105.071 -22.1599
-21.4654 -105.301 -21.7957
-20.767 -105.236 -21.7921
-18.203 -105.249 -21.5386
-22.7528 -101.945 -23.1882
-22.3939 -100.519 -23.2086
-22.6237 -96.1444 -23.34
-22.6707 -97.7143 -23.2944
-22.6329 -98.9098 -23.2744
-22.186 -103.961 -22.9244
-22.6381 -104.23 -22.8909
-22.4997 -104.736 -22.6021
-23.3022 -103.731 -23.1181
-22.8467 -102.831 -23.1422
-22.4997 -104.736 -22.6021
14.0982 -16.8202 25.6137
14.0157 -15.4539 25.5095
14.0264 -14.0679 25.4831
14.1021 -14.6328 25.4777
13.9978 -19.5003 25.579
13.4452 -18.6595 25.6159
14.1765 -12.2418 25.5074
14.1026 -20.4199 25.5665
13.3154 -30.8773 25.7554
13.9863 -28.4535 25.6312
13.4024 -23.7174 25.6452
13.871 -24.3611 25.601
14.2296 -25.1757 25.6042
14.2299 -22.7058 25.5805
13.9711 -25.6815 25.6141
14.2253 -26.2595 25.6587
13.6655 -27.8491 25.6479
13.8078 -26.9164 25.6791
13.5771 -22.1737 25.6044
13.8586 -37.4592 25.7171
14.2128 -35.4163 25.6315
14.0174 -31.2715 25.7375
14.2125 -32.1254 25.7387
13.9195 -32.421 25.7689
13.9128 -33.518 25.7192
13.7641 -34.1814 25.6743
14.1729 -43.0821 25.665
13.7118 -45.657 25.7332
13.7298 -44.2841 25.7164
14.0266 -46.5241 25.7626
13.8274 -38.9635 25.7397
14.062 -40.3429 25.6784
13.6778 -40.2444 25.7062
13.9111 -42.2413 25.6727
13.5354 -51.3193 25.8111
13.8435 -52.5739 25.7908
14.1643 -49.3618 25.7286
14.1377 -47.4765 25.7256
13.85 -53.8351 25.7353
13.6394 -62.4664 25.7264
14.0099 -63.1364 25.7517
14.0733 -61.0082 25.7479
13.7179 -55.2474 25.7324
14.0302 -57.264 25.7865
13.608 -56.8567 25.7798
13.845 -59.3397 25.8228
13.3318 -59.0704 25.8282
13.734 -69.3373 25.7836
13.3075 -70.7496 25.8314
13.7104 -70.9072 25.8446
13.5309 -64.5487 25.7986
14.0998 -65.8756 25.918
13.623 -68.0958 25.7897
25.272 13.1135 20.0764
25.4497 13.4223 16.8303
25.4109 13.6916 17.5404
25.3717 13.5996 18.2144
25.334 14.5849 18.9659
25.4751 12.4632 16.4218
25.206 12.7917 20.9979
25.1009 13.4814 21.9345
25.0261 11.5436 22.9507
21.1432 5.81567 24.8472
23.276 5.71057 24.5843
22.9281 7.98336 24.6
21.9828 7.3856 24.7355
22.6253 6.91922 24.6381
21.2139 7.35933 24.8458
24.1075 4.58732 24.5796
24.2202 6.14411 24.5364
24.9063 9.51388 23.7176
25.0079 10.4401 23.2181
24.7189 9.90143 24.1107
24.5456 6.56451 24.396
24.5896 8.50886 24.2935
14.0296 -9.83107 25.5163
13.4017 -9.23332 25.4967
13.388 -8.55674 25.459
13.8193 -7.2627 25.4454
14.0187 -6.15258 25.4375
14.1747 -3.95205 25.4537
15.1668 0.718328 25.3034
14.4491 0.869409 25.3516
16.598 0.514697 25.2306
17.092 1.39491 25.2317
13.9277 1.2504 25.3587
13.491 -0.319533 25.3402
13.3827 -1.34426 25.3433
14.1976 -1.48877 25.3803
13.8794 -2.66457 25.4322
18.8654 3.70711 25.0438
18.0758 3.06337 25.1667
17.6948 2.93199 25.1894
17.5572 1.78903 25.1853
19.6937 4.23261 24.9534
20.2542 6.45941 24.8859
25.8312 20.7267 9.35204
25.8734 20.4246 8.6513
25.8802 20.037 8.21633
25.8573 21.6529 8.19897
25.8941 23.5907 7.51143
25.6558 16.1614 13.5048
25.6314 16.8249 13.9927
25.6501 17.5606 13.3148
25.6563 18.6444 13.1923
25.5864 18.3751 14.6892
25.703 20.4443 11.5512
25.6844 19.2422 12.425
25.7687 22.5331 10.4718
25.8414 21.712 8.8811
25.7971 22.2375 9.68078
25.6109 16.2665 14.4808
25.4508 18.1846 16.4704
25.4316 15.0579 16.9306
14.1236 -74.9405 25.7426
13.9047 -74.4347 25.7353
13.8288 -75.2755 25.7191
14.0931 -73.1538 25.8755
13.6131 -72.129 25.8357
14.1536 -77.2921 25.853
13.996 -76.5958 25.7904
13.7554 -79.197 25.7689
14.1343 -78.0015 25.8523
14.1615 -83.6638 25.7316
14.204 -81.7194 25.7714
13.8868 -80.1758 25.7667
14.0363 -85.2994 25.7475
14.0274 -85.9957 25.7441
15.199 -88.3867 25.58
15.768 -88.9647 25.5777
14.6366 -88.2159 25.5866
13.9784 -87.6575 25.6237
17.4765 -88.1502 25.7247
17.3175 -89.1618 25.6898
16.8432 -88.702 25.7111
16.1276 -89.7136 25.615
16.0965 -88.656 25.6448
25.9485 26.6911 5.37863
25.9131 25.0621 6.4014
25.9716 27.2823 4.64622
25.9923 25.4891 4.35411
25.9915 27.8341 3.84253
25.9922 28.3859 3.1361
26.0455 27.3611 1.67362
26.018 28.2676 2.13566
26.0726 28.4975 0.327729
15.1126 -90.0486 25.5664
15.428 -89.2078 25.5629
15.3968 -91.1587 25.6308
15.6217 -90.1537 25.5846
15.9797 -91.5988 25.6734
16.4286 -90.2194 25.6522
16.4708 -92.2819 25.7084
17.3245 -91.6579 25.6705
17.1208 -92.1374 25.6876
17.354 -89.8449 25.6469
17.0388 -90.2653 25.6649
16.7285 -89.418 25.6862
17.3113 -92.7155 25.7216
16.9411 -93.6811 25.6725
16.8338 -93.1819 25.6644
16.2224 -93.6088 25.6413
15.9298 -92.6367 25.6622
15.5151 -92.2885 25.6342
14.8628 -91.382 25.6034
16.8514 -96.0458 25.5279
16.3598 -95.5926 25.5403
15.6538 -95.5795 25.46
15.0436 -95.921 25.3947
14.8929 -95.251 25.4034
14.6289 -93.622 25.5028
14.5545 -92.2951 25.5639
17.0185 -94.2526 25.6373
16.7463 -95.0868 25.6095
16.45 -94.6598 25.6375
16.0231 -94.7649 25.5657
15.4509 -93.9767 25.5348
15.6664 -93.287 25.578
14.3925 -91.3886 25.5939
14.6816 -88.9647 25.5636
17.9402 -96.4925 25.5556
18.2296 -97.7209 25.5923
18.0524 -99.2382 25.5598
17.5054 -96.9392 25.5144
18.0615 -102.555 24.9042
18.1561 -103.061 24.4241
17.8434 -103.324 24.0235
18.1022 -103.56 23.5434
17.9703 -101.656 25.3556
17.9511 -101.071 25.4528
18.2739 -102.023 25.2392
18.0134 -99.9608 25.5294
18.2739 -102.023 25.2392
20.3548 -104.749 19.8197
19.0835 -104.776 19.9542
19.4063 -105.045 18.8474
18.6542 -105.012 19.0593
17.9628 -104.841 19.6716
17.7462 -104.375 21.1084
18.1574 -104.211 21.9221
17.6001 -103.902 22.7488
17.6037 -104.132 22.0992
19.8922 -104.861 19.4474
18.7267 -105.341 17.6811
18.8637 -105.17 18.3082
20.6073 -105.347 17.6685
19.8716 -105.255 18.1802
20.5552 -105.045 18.6876
19.2888 -105.104 18.546
21.275 -105.157 18.1847
21.1982 -105.341 17.3701
12.9715 -105.774 -7.97072
11.3598 -105.84 -7.83455
14.306 -105.781 -7.32837
15.4389 -105.761 -7.66102
5.46284 -105.735 -12.4155
5.63753 -105.702 -12.7668
6.11271 -105.676 -11.1492
8.55045 -105.899 -8.1819
8.00378 -105.886 -7.79721
6.69831 -105.846 -7.20499
7.5994 -105.846 -6.76052
5.63998 -105.8 -9.60564
5.34429 -105.879 -8.53597
5.04636 -105.912 -7.82837
5.89788 -105.906 -7.86534
5.412 -105.735 -10.5311
9.88488 -105.827 -7.31988
14.4464 -106.622 -2.3861
15.4294 -106.668 -2.06229
17.6084 -106.628 -2.33794
16.382 -106.602 -2.19548
16.46 -106.576 -2.85362
15.3291 -106.628 -3.2552
14.3499 -106.635 -2.9054
14.3379 -106.602 -3.34314
15.1047 -106.451 -3.75562
14.5033 -106.457 -3.6432
15.1272 -106.129 -4.12295
14.4596 -106.175 -3.95838
15.2812 -105.952 -4.49976
15.4387 -106.076 -4.13388
15.7318 -106.431 -3.52878
16.6711 -106.484 -3.25509
17.1755 -106.549 -3.12777
17.6045 -106.576 -3.1549
17.8387 -106.602 -2.98002
17.7557 -106.457 -3.48334
17.7432 -105.787 -7.0976
17.9542 -105.879 -5.98508
17.1142 -105.814 -6.49222
17.1204 -105.86 -5.58544
16.4331 -105.873 -5.89706
15.4143 -105.919 -5.26514
16.5986 -105.833 -6.45495
15.4105 -105.925 -5.61387
15.2166 -105.906 -6.02032
14.7697 -105.906 -5.92373
18.2845 -105.86 -4.72986
18.1275 -105.886 -5.50619
17.4101 -105.833 -4.80102
16.8906 -105.846 -5.08154
16.2873 -105.827 -4.54533
15.8494 -105.906 -4.34734
16.6035 -105.945 -4.03733
15.8312 -106.043 -4.02729
17.2381 -105.84 -4.27844
17.8811 -105.86 -4.60482
18.1745 -105.873 -4.42462
17.7972 -106.017 -4.06035
17.9559 -106.116 -3.91101
17.1016 -105.945 -3.96903
17.0877 -106.385 -3.43842
16.3292 -106.385 -3.51964
15.4088 -105.787 -6.83297
14.7842 -105.925 -4.56493
14.8448 -105.781 -7.09249
17.7621 -106.687 -1.6164
21.5623 -106.254 9.70147
20.9518 -106.267 10.0157
20.4019 -106.3 10.36
19.7687 -106.332 10.0886
19.5819 -106.352 10.7591
21.3685 -106.28 8.62879
21.6575 -106.339 7.87239
21.0031 -106.411 7.89513
21.5716 -106.352 7.1761
20.7644 -106.464 7.31374
21.3027 -106.438 6.38626
21.0469 -106.464 5.84857
20.4449 -106.372 9.14157
20.6717 -106.398 8.39933
20.4278 -106.484 5.90874
18.3883 -106.339 10.8348
19.0601 -106.313 10.7374
18.9696 -106.332 9.80887
19.402 -106.359 9.29921
19.2641 -106.405 8.63807
19.9476 -106.378 8.5102
19.6927 -106.543 7.86321
20.0899 -106.562 7.45948
19.1993 -106.582 7.68577
20.0549 -106.543 6.72489
19.418 -106.516 6.68745
19.1457 -106.503 6.47091
18.3283 -106.608 7.53328
18.6254 -106.602 7.74456
18.6017 -106.576 8.19951
18.5701 -106.438 9.08629
18.6304 -106.418 9.2309
18.5006 -106.372 9.68081
18.9563 -106.543 5.00236
19.7903 -106.516 5.82796
20.2221 -106.464 4.91194
21.1267 -106.438 5.41843
21.5793 -106.254 11.1264
20.5987 -106.287 12.0341
20.8874 -106.28 11.8769
20.5987 -106.287 12.0341
20.8874 -106.28 11.8769
20.0889 -106.293 12.3139
20.7291 -106.175 12.6114
20.0889 -106.293 12.3139
20.2118 -106.129 13.0941
19.8056 -106.221 12.6394
21.3172 -106.247 12.5882
20.978 -106.116 13.1302
19.4828 -105.971 15.4108
18.6733 -105.958 15.2245
19.003 -105.814 16.1116
18.6645 -105.768 16.3937
18.8453 -105.662 16.8966
18.3321 -105.551 16.9928
20.7088 -105.866 15.2323
21.6025 -106.063 14.313
20.073 -105.938 15.7353
19.8962 -105.899 16.1855
19.8702 -105.735 16.8992
20.138 -105.827 16.3916
20.5113 -105.853 15.6116
19.5259 -105.538 17.4308
20.8585 -105.84 15.4999
21.2178 -105.636 16.3179
20.7972 -105.492 16.8424
20.8145 -106.234 11.1604
20.0354 -106.339 11.3785
19.1175 -106.273 11.181
18.4788 -106.241 11.7705
18.8863 -106.181 12.4697
18.7092 -106.201 12.4898
18.5228 -106.214 13.28
19.564 -106.201 12.0012
19.1968 -106.162 12.5082
18.6686 -106.181 13.7217
19.5907 -106.188 13.048
19.0026 -106.089 14.3727
19.6461 -106.05 14.135
20.4315 -105.906 14.7855
20.6552 -106.037 13.7451
20.8931 -105.945 14.4049
20.9274 -106.057 13.6894
21.4552 -106.181 13.4762
18.174 -106.727 3.03085
17.9765 -106.549 1.57851
17.8849 -106.622 2.3042
18.1119 -106.549 0.728642
17.4608 -106.582 0.345169
18.1719 -106.628 4.34056
18.0733 -106.687 -0.930162
3.29377 -105.472 -14.6528
2.36131 -105.564 -14.1888
3.66381 -105.544 -14.0355
4.84413 -105.649 -13.4846
3.80818 -105.761 -12.2717
3.10352 -105.774 -12.289
2.18528 -105.748 -12.6897
4.173 -105.892 -8.71321
2.75932 -105.8 -10.986
2.6078 -105.807 -11.6249
3.48638 -105.794 -11.1689
4.39139 -105.761 -12.3817
4.12368 -105.768 -11.1934
4.9259 -105.754 -10.9713
4.3013 -105.741 -10.6782
4.82944 -105.754 -10.2344
3.36166 -105.761 -10.0804
3.52391 -105.82 -9.4225
2.94762 -105.853 -8.88527
3.74637 -105.708 -12.8495
2.61145 -105.662 -13.2584
-0.671677 -105.695 -13.1327
-1.34379 -105.906 -8.48617
-1.36928 -105.866 -9.07602
0.0493345 -105.84 -9.27414
-0.0655538 -105.84 -10.2139
0.457084 -105.827 -10.1271
0.485026 -105.873 -10.9542
1.70609 -105.8 -10.1903
1.36904 -105.853 -11.2684
1.39349 -105.84 -9.32757
1.8084 -105.879 -8.61164
-0.0462166 -105.892 -8.32892
0.848217 -105.735 -12.9135
1.84181 -105.768 -12.5398
0.745252 -105.827 -12.1665
-0.19484 -105.807 -12.2783
-0.202171 -105.879 -11.2132
-1.28472 -105.886 -11.9007
-0.934792 -105.912 -11.1677
-1.8144 -105.984 -10.7646
-0.821026 -105.906 -10.723
-1.75832 -105.886 -9.61978
-1.41214 -105.722 -13.1854
-1.87865 -105.676 -13.7393
-3.80501 -105.794 -12.7322
-4.55034 -105.873 -12.3726
-4.19386 -105.768 -13.2615
-5.10456 -105.833 -13.2299
-5.29112 -105.846 -13.5288
-5.66575 -105.866 -12.8571
-5.87871 -105.958 -11.9792
-5.64044 -106.103 -10.3974
-5.18927 -106.083 -10.1473
-4.39141 -106.03 -10.2792
-4.96555 -106.011 -9.43244
-4.1004 -105.938 -9.48436
-4.90363 -105.978 -8.75664
-3.38079 -105.912 -9.46443
-3.2751 -105.912 -8.3301
-2.67583 -105.906 -8.61585
-2.66877 -105.925 -9.74799
-2.82516 -106.004 -10.6027
-3.42295 -105.997 -10.421
-3.41067 -105.991 -10.6805
-3.3677 -105.952 -11.5431
-4.6834 -106.024 -11.108
-4.52749 -105.932 -11.8179
-5.3373 -105.997 -11.6246
-4.80002 -105.873 -12.5026
-1.9439 -105.925 -11.8142
-2.40856 -105.761 -12.9807
-25.1882 -32.7626 -21.072
-25.1586 -36.4411 -21.0049
-25.2064 -39.5021 -19.9496
-25.2252 -32.3487 -20.4897
-25.2113 -30.3321 -20.8387
-25.1744 -35.239 -20.9436
-25.1265 -45.7555 -20.3725
-25.1726 -42.9113 -20.0277
-25.1194 -42.6485 -20.6424
-25.1402 -40.9407 -20.6752
-25.0893 -46.0314 -20.9404
-25.311 -19.6251 -20.9518
-25.3717 -18.9354 -20.3611
-25.3393 -17.3392 -20.9178
-25.3703 -15.027 -20.6993
-25.405 -14.2781 -20.4665
-25.4395 -12.7148 -20.3482
-25.2236 -27.8557 -20.8516
-25.2511 -25.11 -21.0176
-25.3342 -21.3395 -20.4989
-25.3606 -24.6305 -19.8213
-25.2552 -30.6474 -20.1463
-25.3308 -25.0509 -20.2245
-24.2265 0.928523 -24.237
-24.4615 0.869404 -24.2046
-25.4572 1.59854 -21.7401
-25.546 1.64452 -20.7379
-25.507 0.107431 -20.6694
-25.2996 1.17814 -22.8047
-25.4818 -3.23606 -20.555
-25.4763 -4.50383 -20.5992
-25.2315 1.42118 -23.0682
-24.6817 0.99421 -24.0479
-24.9908 1.56569 -23.5315
-22.4116 1.91383 -24.2448
-22.9876 3.50347 -24.2232
-23.5328 2.8466 -24.2077
-24.268 1.86128 -24.1973
-23.7327 3.06993 -24.1977
-22.0115 3.267 -24.2359
-21.6328 3.93044 -24.2195
-22.4072 2.80718 -24.2395
-20.2542 4.16034 -24.2098
-20.8593 4.63329 -24.2192
-19.5717 5.96018 -24.1974
-25.4418 -7.23642 -20.7103
-25.4845 -6.19199 -20.4541
-25.4579 -8.06409 -20.451
-25.4121 -8.55017 -20.9082
-25.4499 -10.685 -20.5652
-24.9989 -54.2358 -20.9576
-25.1503 -49.0531 -19.7886
-25.1361 -49.1581 -19.9345
-25.0307 -50.7084 -20.933
-25.0979 -50.9448 -20.2868
-25.0359 -52.771 -20.6857
-25.0139 -59.6484 -20.559
-24.9639 -60.6994 -21.0326
-25.0166 -56.0816 -20.8211
-25.0632 -58.9062 -19.8534
-24.9825 -62.4204 -20.7486
-25.0012 -63.7342 -20.3358
-24.9526 -64.9625 -20.9177
-9.73303 15.8856 -23.8292
-9.54818 15.59 -23.8037
-10.6192 15.406 -23.8699
-12.0037 14.9988 -23.9026
-12.3044 13.777 -23.918
-13.0762 12.5158 -24.0008
-11.4999 17.173 -23.8258
-10.1705 17.2321 -23.822
-12.5453 15.2024 -23.9158
-13.332 12.4041 -24.0012
-18.5571 6.73529 -24.1395
-18.0168 6.6696 -24.1439
-17.841 8.17385 -24.1362
-17.6359 8.80445 -24.1213
-16.3432 12.2333 -24.089
-17.007 12.3384 -24.113
-18.302 9.38906 -24.1516
-15.8698 14.4404 -24.0082
-14.4809 11.3991 -24.0229
-14.531 13.974 -23.9577
-14.3897 9.79632 -24.0204
4.36512 24.9898 -23.2673
3.53893 25.5416 -23.283
2.90927 25.2329 -23.3109
-3.61213 22.3164 -23.6344
-2.68831 23.6038 -23.5428
-3.15641 24.5366 -23.5532
-2.59008 24.8716 -23.5525
-2.12101 24.7599 -23.5533
-3.26 23.5841 -23.5303
-4.11074 23.4922 -23.6099
-4.75315 23.5316 -23.6413
-6.28611 22.4477 -23.6208
-5.36618 24.0702 -23.6655
-5.70255 24.5563 -23.6565
-6.25446 23.8337 -23.6526
-8.84545 16.641 -23.7638
-9.72872 17.5212 -23.793
-8.63272 18.2634 -23.7176
-8.23004 19.0648 -23.7261
-7.91038 21.1997 -23.746
-6.92967 21.8237 -23.7008
-7.12551 22.6645 -23.7216
-7.42934 21.6595 -23.7176
1.84035 25.6336 -23.4307
1.42184 25.7781 -23.4516
2.59127 26.3101 -23.3807
-0.298972 26.5401 -23.4753
-0.666569 24.9438 -23.5345
0.585971 27.0393 -23.445
-1.77594 26.435 -23.5733
-1.2519 25.4496 -23.5525
22.6182 31.5126 -22.1598
23.1855 31.6637 -22.1322
24.3883 33.1219 -22.0847
24.1452 33.7985 -22.0888
23.7516 32.1892 -22.1005
25.2958 34.7378 -22.0206
24.9064 35.1582 -22.1013
24.767 33.1351 -22.1138
21.282 28.4647 -22.2731
19.0644 26.8159 -22.4383
19.7456 27.6961 -22.3074
20.5195 28.4647 -22.2782
18.2738 26.7765 -22.6146
16.6668 28.9442 -22.5948
17.3397 27.3808 -22.5529
17.5347 28.2479 -22.5589
17.3975 29.1216 -22.5724
18.0648 26.6189 -22.6225
15.6316 28.8128 -22.7091
15.648 30.0806 -22.7724
16.522 30.836 -22.6848
14.913 28.4187 -22.8239
15.3002 28.9771 -22.7949
11.8682 29.45 -23.0914
12.7605 29.8704 -22.9536
13.6514 30.0149 -22.8859
11.1444 28.0377 -23.0424
13.9982 30.1332 -22.9048
14.3279 28.9968 -22.8728
8.87592 28.8128 -23.1693
9.0832 30.2842 -23.1625
9.14414 31.4141 -23.1489
10.2725 31.3615 -23.0929
10.1997 29.496 -23.0832
10.5544 30.3893 -23.0874
10.8943 29.3252 -23.0725
11.2657 29.1019 -23.0657
6.58675 27.9655 -23.2237
26.0787 32.695 -13.1732
26.1159 32.3008 -11.501
26.0585 33.9167 -15.7585
26.06 33.8773 -14.296
25.9942 35.9071 -17.4842
26.0313 35.1254 -16.9393
25.6331 35.4932 -21.7758
23.9564 35.4932 -22.0691
25.7664 35.9268 -21.581
25.6505 38.2258 -21.7525
25.8226 40.6957 -21.4582
25.9 40.9453 -21.0923
25.7473 39.7958 -21.6508
25.9234 39.0732 -20.32
25.921 41.0767 -20.7346
25.5807 39.4411 -21.8531
25.9195 40.5183 -19.7374
25.9613 37.6478 -18.4467
25.994 37.0763 -17.8617
26.1273 30.4747 -8.0642
26.1599 30.4813 -6.5335
26.1306 31.4929 -8.8716
26.1321 29.5879 -4.39764
26.1196 29.9755 -1.91261
26.1342 29.831 -3.24041
26.1287 29.2989 -1.25943
26.1247 30.2908 -0.774856
26.157 29.5814 -5.69721
26.1236 33.7328 -10.9253
26.1079 33.897 -9.68412
4.97375 25.6204 -23.2866
6.51509 25.962 -23.1656
5.61475 25.9817 -23.2346
6.1402 25.8372 -23.189
7.39484 27.1772 -23.1984
6.62114 27.0984 -23.2131
8.23316 29.5157 -23.2296
7.6955 29.358 -23.2355
-7.27745 -105.879 -14.3855
-7.27284 -105.886 -12.7991
-8.12857 -105.971 -12.7005
-8.02009 -106.037 -11.698
-8.87349 -106.037 -11.9035
-8.86634 -106.155 -11.0534
-9.77296 -106.083 -11.4084
-9.52189 -106.168 -10.7615
-9.75328 -106.208 -9.58526
-8.70381 -106.208 -10.3284
-8.10962 -106.135 -11.0713
-7.17451 -105.945 -12.0828
-6.76268 -105.879 -12.6489
-6.79123 -105.971 -11.7816
-6.63183 -106.037 -11.3548
-6.51329 -106.096 -10.747
-7.45739 -106.149 -10.5557
-6.48745 -106.109 -10.219
-6.84122 -106.129 -10.0973
-6.01112 -106.07 -11.1561
-6.58177 -105.866 -13.1681
-7.48649 -106.043 -8.56637
-7.95502 -106.083 -8.4768
-8.56687 -106.135 -8.85363
-9.26643 -106.129 -8.86043
-6.73776 -106.043 -9.14351
-8.17334 -106.181 -9.56071
-8.71831 -106.195 -9.53074
-7.97566 -106.181 -10.2432
-7.96166 -105.925 -14.6712
-8.31027 -105.971 -14.1305
-8.4064 -105.965 -13.5463
-9.86053 -106.004 -13.8992
-9.70064 -105.958 -13.1641
-8.58891 -105.965 -14.5041
-8.99096 -105.978 -12.47
-9.75327 -105.997 -12.143
-9.94322 -106.208 -9.53056
-10.5723 -105.59 -18.4897
-10.4392 -105.439 -19.3459
-11.1536 -105.571 -18.8035
-10.193 -105.597 -17.8401
-10.5501 -105.255 -20.0967
-10.4843 -105.938 -14.9335
-10.8464 -105.794 -15.8918
-10.8867 -105.676 -17.0072
-11.6676 -105.689 -18.2805
-12.6366 -105.695 -18.3181
-12.6515 -105.761 -17.5111
-12.469 -105.754 -16.7802
-13.7742 -105.82 -16.6583
-13.332 -105.82 -16.4188
-13.8836 -105.82 -17.4225
-13.3024 -105.754 -18.0926
-13.8418 -105.636 -18.8256
-12.6633 -105.814 -16.2244
-11.7605 -105.728 -17.8374
-11.8407 -105.741 -16.8607
-11.995 -105.84 -15.8847
-12.0007 -105.919 -15.363
-12.9246 -105.866 -15.7269
-13.5789 -105.965 -15.0162
-13.5707 -105.906 -15.4718
-12.6439 -105.544 -19.0918
-11.7675 -105.327 -20.0726
-11.3136 -105.479 -19.417
-16.4478 -105.426 -20.3843
-17.3623 -105.452 -20.5652
-17.9832 -105.682 -19.1665
-17.7916 -105.991 -17.4266
-16.6463 -106.024 -15.0072
-17.8238 -106.089 -14.9712
-15.8546 -105.932 -16.1365
-16.7735 -105.984 -16.0505
-16.5876 -105.971 -16.7933
-17.1089 -105.984 -16.946
-17.6543 -106.037 -16.5964
-17.9343 -106.05 -15.6859
-14.7892 -105.971 -15.4961
-14.4048 -105.879 -16.5387
-15.2948 -105.919 -16.4361
-14.8066 -105.892 -17.4872
-15.7537 -105.919 -17.0496
-15.0923 -105.879 -17.8486
-15.711 -105.873 -17.7977
-15.4681 -105.616 -19.0715
-16.0455 -105.656 -18.8025
-16.9208 -105.518 -19.7555
-16.8423 -105.623 -19.2121
-17.1534 -105.695 -18.8165
-16.8285 -105.866 -17.8657
-16.2922 -105.912 -17.4835
-14.8596 -105.557 -19.3704
-15.9862 -105.492 -19.7357
-14.9798 -105.426 -19.9339
-15.0772 -105.314 -20.6615
-14.0251 -105.38 -19.9845
-14.2065 -105.807 -18.0256
-15.5778 -105.991 -15.1886
-24.9166 -70.5723 -20.8678
-24.9581 -69.6986 -20.2001
-25.0021 -68.7724 -19.8253
-24.9214 -68.2206 -21.0763
-24.988 -67.1105 -20.1146
-24.4857 -71.597 -22.9833
-24.6841 -71.124 -22.5401
-24.3265 -72.4575 -23.2444
-24.4756 -72.4443 -23.0149
-24.0862 -72.3195 -23.4716
-23.166 -75.1244 -23.54
-23.5174 -74.6777 -23.5408
-23.8955 -73.3049 -23.5139
-24.9117 -72.4838 -20.781
-24.837 -72.4378 -21.8044
-24.7951 -71.3277 -22.0421
-24.7674 -71.3868 -22.2102
-24.8252 -73.6201 -21.8803
-24.8327 -74.5069 -21.8589
-24.8117 -76.4841 -21.8189
-24.7636 -77.3446 -22.1719
-24.2434 -73.4165 -23.3166
-24.2954 -75.282 -23.2361
-24.1219 -73.4034 -23.409
-24.1567 -76.4644 -23.3649
-24.0429 -74.3559 -23.4575
-23.9061 -76.4513 -23.473
-23.7212 -78.3496 -23.4928
-23.2586 -76.0375 -23.5218
-24.2453 -78.7109 -23.2486
-24.1707 -77.5483 -23.3334
-24.1094 -77.9818 -23.3817
-22.9043 -79.2627 -23.4641
-24.8182 -79.4335 -21.7181
-24.8868 -73.7253 -21.1421
-24.7742 -74.6252 -22.229
-24.6985 -74.8682 -22.4994
-24.728 -76.2673 -22.3324
-24.4402 -75.9652 -23.0084
-24.6791 -76.852 -22.4461
-24.446 -77.7519 -22.9478
-24.6795 -77.5877 -22.4368
-24.5122 -78.8226 -22.7977
-24.3995 -79.3021 -23.0224
-23.1067 -78.1591 -23.482
-22.548 -74.947 -23.5197
-23.193 -84.3272 -23.443
-22.4899 -84.1039 -23.4196
-24.7003 -87.6707 -22.0993
-24.5843 -86.9941 -22.4198
-24.5977 -84.9841 -22.474
-24.3745 -83.2762 -22.9678
-24.6294 -83.0529 -22.4494
-24.5763 -81.6012 -22.6701
-24.7207 -81.0888 -22.3229
-24.7125 -79.5517 -22.2865
-24.7899 -81.01 -22.0243
-24.8007 -80.2809 -21.869
-24.5328 -80.2152 -22.7252
-24.3494 -80.872 -23.0875
-24.8057 -86.4949 -21.1462
-24.7611 -87.4014 -21.6592
-24.7019 -86.508 -22.1004
-24.723 -85.4242 -22.0641
-24.7711 -85.7592 -21.7039
-24.7568 -84.9512 -21.888
-24.8236 -83.309 -21.2583
-24.7773 -81.9427 -21.9826
-24.0255 -81.9822 -23.3888
-23.735 -82.2186 -23.447
-23.1552 -82.2843 -23.4684
-23.8601 -84.5177 -23.4166
-23.6963 -84.3141 -23.4383
-23.7551 -86.3767 -23.4147
-23.4261 -86.2715 -23.4405
-23.6813 -87.1977 -23.4356
-23.3732 -87.0072 -23.4488
-24.181 -81.6997 -23.2781
-24.2514 -83.4076 -23.157
-24.1751 -86.0219 -23.2026
-24.0147 -86.1139 -23.3172
-23.9661 -87.0204 -23.369
-23.4211 -80.2283 -23.4825
-24.7435 -91.7499 -21.3037
-24.7016 -94.4759 -21.3599
-24.6869 -95.6451 -21.3717
-24.7711 -88.656 -21.3935
-23.6795 -88.3013 -23.4273
-22.764 -88.9582 -23.4247
-23.4651 -89.6216 -23.4254
-23.6801 -96.2495 -23.3417
-23.8898 -95.9145 -23.2713
-24.121 -96.0656 -23.1098
-24.2291 -95.1262 -22.9633
-24.5369 -95.9933 -22.2932
-24.5461 -94.5744 -22.3256
-24.6539 -95.2379 -21.8779
-24.6181 -93.8585 -22.1602
-24.6846 -93.1359 -21.812
-24.6177 -92.8009 -22.1694
-24.731 -91.6842 -21.5869
-24.6838 -91.093 -22.0193
-24.7313 -89.3457 -21.7447
-24.6522 -89.083 -22.1491
