VERSION .7
FIELDS x y z
SIZE 4 4 4
TYPE F F F
COUNT 1 1 1
WIDTH 1877
HEIGHT 1
VIEWPOINT 0 0 0 1 0 0 0
POINTS 1877
DATA ascii
51.7218 4.78805 16.0983
51.6999 3.47962 16.3609
51.7266 2.75925 16.0133
51.7445 4.2882 15.9672
51.8321 5.23644 14.5093
51.9007 7.50047 13.3494
51.5164 -61.7067 26.3093
51.4288 -57.9431 26.4776
51.4312 -55.4586 26.2894
51.5859 -65.4923 26.271
51.5776 -66.9772 26.4466
51.7352 -72.5711 26.3138
51.7041 -71.3141 26.2213
51.6649 -68.8296 26.2125
51.8516 -71.0275 25.2943
51.9235 -71.101 24.3771
52.0262 -71.6964 23.3948
52.0751 -70.6158 22.1516
52.1706 -71.8728 21.4425
52.1806 -77.6725 22.3285
52.2223 -76.3641 21.4583
52.6869 12.0285 1.43891
52.5774 14.6601 3.10952
52.7019 14.1161 1.3655
52.5357 12.3593 4.2292
52.523 10.2423 5.34606
52.4387 10.2349 6.59755
52.3879 9.44842 7.31216
52.2487 7.47107 9.10351
52.3176 9.51457 8.10121
52.2363 9.45577 9.83704
52.2751 -76.1362 20.881
52.2984 -79.4514 21.123
52.3397 -77.7093 20.1871
52.1367 -78.7751 23.4946
51.9921 -73.5488 23.9078
52.0404 -75.5776 24.0223
51.8276 -74.4529 25.811
52.0669 -72.2697 22.8263
52.1009 -73.1445 22.4051
52.1089 -75.4746 23.0041
52.1511 -77.327 22.9482
52.117 -76.7978 23.611
52.0629 -78.9221 24.524
52.0242 -75.901 24.3894
51.9991 -77.4667 25.1578
51.9349 -75.2541 25.1769
52.9588 -96.1523 10.4598
52.9298 -96.7697 9.96358
52.9262 -96.5713 9.36355
52.919 -98.2913 10.2276
52.9423 -97.3578 9.13819
52.9999 -96.8065 7.68541
53.0906 -97.3651 6.42043
53.1583 -97.1226 5.71185
53.1079 -95.2408 5.80155
52.9009 -97.4754 11.1561
52.929 -95.7186 11.3132
52.9589 -93.3957 10.1683
52.9662 -93.5501 10.7356
52.9395 -93.212 11.2329
52.9492 -92.249 11.2206
52.8798 -92.2417 11.8997
52.8496 -97.9606 11.9467
53.1587 -93.4105 5.72773
53.1438 -91.83 6.0586
53.0748 -95.1305 6.41217
53.0059 -95.1967 7.01525
52.964 -95.0791 7.72777
52.9647 -94.6601 8.30052
53.1771 -97.3137 5.06464
53.0483 -92.0726 6.86755
53.1068 -92.94 6.39468
53.1393 -100.151 2.25687
53.1131 -98.5413 3.26912
53.1233 -99.7615 4.11312
52.3744 -86.6772 20.9794
52.3589 -88.1106 21.4282
52.3871 -86.6919 20.703
51.9221 -80.2453 26.0443
52.0575 -81.2744 25.0762
52.1197 -81.3258 23.83
52.1695 -84.3396 23.9081
52.2037 -80.4952 22.363
52.1862 -80.4732 22.6246
52.2287 -81.9139 22.0856
52.2958 -87.9856 21.9441
52.1 -88.0444 25.719
52.0056 -84.8248 26.0846
52.099 -85.0821 25.3799
52.1241 -84.1265 24.8111
52.146 -87.9635 25.1892
52.1676 -88.3311 24.3697
52.2276 -86.0377 23.2696
52.2634 -86.7066 22.4368
52.2905 -83.1782 21.614
52.3413 -84.6778 21.3904
52.3619 -80.5908 20.2318
52.3762 -83.215 20.4181
52.3718 -79.863 20.0777
52.4423 -90.4922 19.8376
52.3941 -89.1617 20.9129
52.4318 -96.6668 20.0177
52.2385 -90.1173 22.8139
52.2473 -92.1388 22.8618
52.2694 -92.1388 22.4573
52.0468 -93.212 26.1807
52.0505 -91.0288 26.048
52.1029 -92.6166 25.5546
52.131 -91.1832 24.8214
52.1243 -93.6751 25.0186
52.2257 -92.102 23.4817
52.1239 -93.9544 24.8031
52.1622 -93.8735 24.0815
52.1811 -95.4393 24.0751
52.2046 -95.1599 23.2431
52.1489 -97.8723 24.1345
52.2742 -94.1896 22.2726
52.2667 -95.351 22.2384
52.3766 -91.6095 21.3741
52.3611 -93.7192 21.2321
52.3843 -94.0059 20.7256
52.4713 -93.8515 19.3437
52.383 -95.9759 20.5203
52.3635 -97.9606 21.3353
52.1137 -96.6154 25.1409
52.0597 -96.6742 25.8622
52.0753 -94.4836 25.7628
52.1288 -89.5954 25.2671
52.2079 -90.257 23.5857
52.2536 -97.4828 22.499
52.6139 -98.8206 16.6213
52.4547 -102.93 18.4134
52.4725 -101.195 18.5589
52.4832 -98.453 18.1452
52.439 -98.431 19.3453
52.6408 -100.46 14.8004
52.726 -99.2396 13.7803
52.7096 -101.452 13.5985
52.6324 -99.9526 16.058
52.786 17.4975 -0.442859
52.7473 16.755 0.362724
52.7429 17.8503 -2.399
52.7614 18.1223 -3.21181
52.7387 16.1449 0.871768
36.3925 -110.133 -22.7118
38.0939 -108.355 -22.7562
44.0906 -107.774 -22.5581
39.0399 -107.906 -22.7129
39.9585 -109.156 -22.6453
41.1303 -108.965 -22.5792
43.4 -108.979 -22.5576
45.5232 -108.09 -22.5014
52.7856 -108.862 -22.1775
53.22 -109.288 -22.0121
53.4575 -108.604 -21.7724
50.2475 -107.796 -22.3737
48.6789 -109.148 -22.3765
45.7399 -109.685 -22.4425
47.3355 -110.339 -22.3803
51.5468 -108.024 -22.2937
53.5826 -109.2 -21.171
53.6142 -108.531 -20.364
53.5687 -108.266 -21.3914
53.6016 -107.766 -19.838
53.4942 -110.795 -18.9125
53.5522 -109.906 -17.8781
53.4575 -108.604 -21.7724
53.558 -108.244 -17.4743
53.3929 -108.693 -15.7447
53.4216 -108.935 -16.496
53.4021 -109.42 -14.5491
53.2774 -109.023 -11.5235
53.2975 -107.994 -10.7836
53.3353 -107.796 -9.55685
53.2729 -110.295 -12.0215
53.3901 -109.604 -13.151
53.3147 -108.031 -8.19857
53.2686 -109.406 -8.60895
53.2013 -105.348 -2.15934
53.1546 -108.355 -2.84305
53.2188 -107.178 -3.90215
53.229 -103.305 -2.01814
53.1905 -108.083 -6.97966
53.161 -108.06 -6.40979
53.2342 -104.892 -6.28126
20.9639 -108.502 -23.3169
21.2793 -109.266 -23.2832
22.5706 -108.81 -23.2113
28.5773 -108.722 -23.0096
27.4041 -108.759 -23.0893
25.3068 -108.531 -23.1834
24.2508 -109.766 -23.1609
23.3853 -108.671 -23.1991
33.7418 -109.244 -22.8536
32.6354 -110.927 -22.8412
31.4766 -111.295 -22.8763
30.5408 -110.141 -22.916
34.5613 -108.105 -22.8265
35.1475 -107.965 -22.8065
14.5255 -107.788 -23.5649
15.6616 -109.487 -23.4486
13.527 -109.207 -23.5639
16.8996 -108.722 -23.4141
17.6579 -109.104 -23.3826
18.6072 -108.479 -23.388
19.7783 -108.766 -23.3538
4.12981 -102.636 -24.1109
3.31013 -103.547 -24.1459
2.08543 -105.76 -24.1336
3.24249 -105.613 -24.0781
5.109 -108.435 -23.8299
4.08477 -109.413 -23.8328
3.94979 -107.546 -23.9309
12.3797 -110.251 -23.5319
9.39187 -109.332 -23.6863
10.8343 -109.523 -23.592
9.10099 -107.994 -23.7717
7.99704 -109.464 -23.7479
7.237 -107.884 -23.8588
6.0173 -110.273 -23.7239
53.0704 -106.914 -1.384
53.092 -105.642 -1.12157
52.9984 -107.634 1.94662
53.0931 -105.995 0.457169
53.125 -104.517 -0.550423
53.226 -101.952 0.859113
53.231 -102.026 1.62249
53.1531 -103.863 2.02805
53.0387 -103.79 3.08499
53.0342 -105.245 3.08603
53.0054 -104.539 4.32846
52.9703 -105.642 4.45249
52.9318 -106.326 4.72503
52.8844 -107.546 3.85984
52.9054 -107.671 4.88894
53.152 -101.658 2.42158
53.1001 -101.798 3.18833
53.0168 -103.356 4.53737
53.1123 -101.57 3.47892
53.0129 -106.48 2.34046
52.9781 -106.311 2.82176
52.9428 -106.26 3.87806
53.122 -105.488 1.24486
53.1695 -104.753 1.46926
53.1463 -104.282 0.0953413
53.1827 -102.65 -0.364378
-28.3085 -38.7945 -26.371
-28.2856 -37.758 -26.3944
-29.0486 -41.404 -26.3409
-28.5005 -33.9062 -26.4237
-28.7512 -37.0376 -26.4107
-29.628 -35.5822 -26.4083
-28.3151 -32.0759 -26.4653
-29.407 -32.7301 -26.4503
-29.3914 -23.1962 -26.5498
-29.0122 -25.0486 -26.4592
-29.4366 -29.584 -26.4793
-30.1396 -28.5108 -26.4858
-29.8465 -26.7466 -26.4469
-28.3728 -27.6434 -26.4018
-28.604 -30.6499 -26.5132
-29.3136 -25.7102 -26.4643
-28.858 -13.9563 -26.5434
-28.9075 -21.2336 -26.5138
-28.5509 -16.757 -26.5337
-29.0458 -17.9919 -26.5631
-28.3703 -19.3224 -26.5401
-28.375 -4.27541 -26.547
-28.7777 -5.92198 -26.5463
-29.3363 -7.13485 -26.5827
-29.2799 -12.3098 -26.552
-29.1034 -9.11955 -26.5915
-29.5203 -11.0675 -26.5774
-28.8856 -49.7912 -26.1855
-29.0429 -51.4451 -26.1865
-29.7088 -48.7915 -26.1798
-30.1279 -47.9682 -26.2111
-28.8153 -46.498 -26.2839
-29.4798 -45.763 -26.3134
-29.1688 -44.3957 -26.3286
-30.5088 -43.4328 -26.3312
-30.5242 -41.2864 -26.3236
-29.4485 -54.209 -26.213
-29.6278 -56.6053 -26.1509
-28.9584 -52.4301 -26.2483
-29.1226 -53.2313 -26.2596
-28.3844 -61.1113 -26.0777
-28.4622 -59.7882 -26.1133
-28.9273 -58.8693 -26.1059
-15.7347 5.64808 -26.3009
-17.5585 5.94211 -26.3395
-16.4081 7.49312 -26.3283
-15.3181 7.41226 -26.3309
-20.5515 5.28055 -26.4248
-21.012 4.58958 -26.4105
-21.3096 3.55312 -26.4483
-19.7064 5.47167 -26.4018
-18.3866 6.14793 -26.3486
-26.053 1.25969 -26.5356
-29.214 -1.88642 -26.5495
-29.7453 -0.622095 -26.5605
-27.244 0.862754 -26.5612
-28.4719 1.42141 -26.5422
-23.6429 1.65663 -26.4691
-24.9855 2.03152 -26.491
-22.633 2.89156 -26.4608
-23.4518 3.17824 -26.4561
7.10568 15.1599 -25.7203
5.93566 14.6454 -25.7569
7.63646 16.7844 -25.6334
8.68626 16.2552 -25.6345
-12.8474 8.17674 -26.2506
-7.15495 12.5945 -26.0849
-3.06156 14.0059 -25.9826
-3.51525 14.4249 -25.9658
-5.28759 13.5648 -25.9966
-6.83071 13.1899 -26.1031
-11.3922 10.4702 -26.1833
-11.067 12.8886 -26.112
-9.08978 12.4622 -26.1473
-11.9845 12.1976 -26.1818
-7.94834 13.3002 -26.0921
-8.58032 13.506 -26.1153
4.72 15.2628 -25.7886
3.58656 15.7553 -25.7859
2.79886 16.2405 -25.7884
1.35733 17.1373 -25.843
0.346234 16.1743 -25.857
-1.66833 15.329 -25.9426
46.414 23.2531 -24.3057
47.2788 24.0911 -24.2494
43.2014 18.4972 -24.3853
42.5513 20.3716 -24.4702
44.7894 17.4681 -24.3153
43.4881 22.4519 -24.4827
44.3158 22.9223 -24.4396
44.9535 21.6359 -24.3618
51.3901 25.2304 -24.0934
51.8718 25.1937 -23.8612
51.7911 23.5251 -23.9741
50.6189 25.5759 -24.2057
50.1363 23.8412 -24.2859
49.9196 24.6497 -24.245
49.3596 25.2819 -24.1953
48.0921 25.2745 -24.2009
37.4247 20.0776 -24.723
36.3479 22.643 -24.7814
32.9 19.4822 -24.8556
34.501 20.8494 -24.8046
35.3058 21.8344 -24.7881
26.7707 19.4748 -25.0984
27.5096 19.5042 -25.0844
27.4322 18.4237 -25.1041
30.8947 20.0335 -24.9774
31.4787 21.4007 -24.903
30.8176 22.7459 -24.9313
30.0498 23.6059 -25.0424
29.863 22.6944 -25.0644
32.2704 21.3566 -24.8754
31.3624 19.9379 -24.9156
29.1843 21.8271 -25.0307
28.5577 21.4742 -25.0152
27.9271 20.3643 -25.0747
38.3018 21.6874 -24.6675
40.2904 21.2169 -24.5438
41.1953 20.7685 -24.489
52.1389 23.231 -23.6924
52.3133 24.466 -23.428
51.7911 23.5251 -23.9741
52.2067 25.9141 -23.6026
52.038 27.3107 -23.7626
51.9595 28.0164 -23.83
52.1694 28.5897 -23.6238
52.4581 27.8326 -23.0428
52.5264 27.8105 -21.2064
52.4982 29.2513 -22.7528
52.7395 23.4736 -13.1099
52.713 23.8338 -14.1856
52.7581 23.1134 -15.4958
52.7379 23.1575 -14.962
52.6461 25.0687 -18.1803
52.6433 24.1205 -18.3074
52.7012 23.9661 -17.5225
52.5727 26.4286 -19.257
52.6168 26.6418 -18.3431
52.5424 28.7367 -19.6092
52.5873 27.987 -19.0049
52.6957 26.8917 -17.2697
52.5149 29.9276 -20.3832
52.5105 29.1484 -21.1228
52.7465 24.8115 -16.553
52.7302 24.3998 -17.2259
52.8365 20.5627 -6.54917
52.8172 20.7391 -9.32935
52.8127 22.2093 -8.24634
52.8059 19.4013 -9.77984
52.8284 22.2313 -11.3502
52.8538 20.526 -5.68687
52.7323 19.3499 -2.96743
52.806 19.0632 -4.49587
52.8139 22.7753 -11.6941
52.7494 22.2166 -12.7729
20.9553 17.9753 -25.2792
21.9124 17.424 -25.2346
24.4165 19.0191 -25.2081
25.1207 19.5851 -25.1959
21.6799 18.6074 -25.2019
23.248 18.7103 -25.2729
22.3702 19.9306 -25.2184
10.9317 17.5048 -25.6031
12.3904 18.159 -25.5766
12.0592 19.4822 -25.6185
13.1057 19.291 -25.521
9.85414 17.4975 -25.6434
19.5586 18.159 -25.3204
20.2 18.1296 -25.2754
18.4284 19.1293 -25.4241
15.3848 21.4522 -25.4776
16.1588 20.1584 -25.4379
15.955 19.5116 -25.4239
13.931 20.9523 -25.4814
14.3103 19.3131 -25.4827
17.2795 20.3275 -25.4636
-3.68321 -105.311 -24.4132
-3.48431 -106.34 -24.3502
-3.70715 -107.465 -24.2878
-1.73255 -107.428 -24.2427
-2.45527 -106.943 -24.2825
-2.52169 -106.348 -24.3088
-2.47162 -105.23 -24.3146
-3.5106 -103.731 -24.3779
-2.58883 -102.878 -24.3669
-3.44244 -101.901 -24.4718
-1.56672 -102.981 -24.3096
-1.51968 -100.827 -24.4005
-0.791802 -102.202 -24.33
0.114872 -101.217 -24.3454
0.275239 -103.033 -24.2593
1.3719 -101.636 -24.3093
1.39874 -104.098 -24.2078
2.00675 -103.547 -24.209
2.55598 -103.099 -24.1943
-0.444073 -106.304 -24.1482
1.75836 -107.487 -24.0428
-0.539961 -107.105 -24.1456
-1.46494 -106.193 -24.1998
-1.75458 -104.209 -24.2795
-0.521691 -104.51 -24.2258
3.0818 -106.701 -24.0303
-1.5481 -99.8864 -24.4238
-5.69726 -100.791 -24.5748
-5.35329 -102.187 -24.5099
-6.68491 -101.614 -24.5883
-6.87545 -103.187 -24.6274
-7.58663 -102.305 -24.65
-7.74146 -103.407 -24.5896
-8.99687 -104.437 -24.5542
-7.70432 -104.701 -24.4766
-7.8824 -106.098 -24.4088
-6.43803 -106.164 -24.3768
-7.74105 -107.046 -24.3741
-11.5071 -104.069 -24.701
-11.8119 -103.327 -24.7152
-10.1118 -106.502 -24.5238
-9.58001 -105.738 -24.5389
-10.3955 -103.319 -24.6827
-11.8632 -106.943 -24.5655
-10.8658 -105.436 -24.6141
-4.6758 -107.355 -24.2998
-4.44588 -105.87 -24.4436
-5.23662 -105.26 -24.4814
-5.67416 -103.701 -24.5403
-5.68055 -104.856 -24.5269
-6.60641 -104.444 -24.5209
-4.3896 -104.885 -24.4708
-4.64708 -102.79 -24.4603
-11.5948 -99.7688 -24.8321
-11.9245 -101.665 -24.7108
-10.847 -101.21 -24.7703
-11.2109 -102.878 -24.7267
-9.10382 -101.335 -24.7447
-8.12025 -101.393 -24.7142
-9.01363 -99.5336 -24.8018
-10.4601 -100.011 -24.8791
-9.23027 -100.033 -24.8108
-13.9221 -98.3796 -24.8822
-12.624 -99.5483 -24.8578
-29.7311 -62.0963 -26.0827
-28.4079 -66.617 -25.9784
-29.5731 -64.7352 -26.05
-29.9043 -62.8681 -26.0919
-28.7403 -70.6746 -25.9262
-29.3642 -68.0872 -25.9413
-28.4634 -67.5506 -25.9693
-22.6714 -80.2306 -25.7391
-24.3018 -80.701 -25.7613
-23.2822 -80.1718 -25.7653
-28.3631 -75.8128 -25.8232
-28.2814 -80.0468 -25.7626
-27.1403 -80.8848 -25.7232
-28.6894 -78.3561 -25.8004
-29.4564 -75.6731 -25.8718
-29.3452 -73.9751 -25.9398
-28.4688 -73.5561 -25.9581
-28.7664 -71.9095 -25.996
-21.4676 -86.6551 -25.491
-22.1977 -86.9786 -25.515
-25.1796 -81.1421 -25.7487
-26.3861 -83.3399 -25.6249
-24.8965 -82.9724 -25.6635
-23.684 -83.7001 -25.625
-23.2774 -82.4873 -25.6506
-23.9199 -81.245 -25.7432
-22.2051 -81.2744 -25.691
-21.4482 -82.0315 -25.6233
-22.0101 -82.252 -25.603
-22.5623 -82.6269 -25.6031
-27.5183 -82.7519 -25.6664
-27.6794 -84.2147 -25.7343
-26.5717 -84.8615 -25.5913
-26.1734 -84.5234 -25.5911
-26.1769 -85.7583 -25.5503
-25.3153 -85.5893 -25.5371
-25.8351 -86.7948 -25.5807
-24.9686 -85.9568 -25.5448
-24.9473 -87.8239 -25.6396
-24.3819 -86.3905 -25.6008
-23.4448 -86.905 -25.5554
-22.8221 -85.6701 -25.546
-22.7098 -88.1988 -25.4666
-28.0999 -84.6851 -25.7293
-27.4597 -85.6481 -25.6402
-28.0065 -86.8462 -25.6934
-27.3777 -87.2432 -25.6635
-28.1975 -87.3681 -25.7064
-27.9482 -88.7648 -25.6332
-23.9228 -85.1409 -25.5788
-27.4325 -88.6178 -25.6226
-25.5817 -88.7721 -25.6243
-24.603 -88.4193 -25.6087
-23.3578 -88.581 -25.506
-27.2875 -81.6493 -25.6707
-20.6242 -93.3663 -25.2479
-20.643 -92.499 -25.2914
-21.1731 -96.3875 -25.2467
-21.2359 -94.5131 -25.2639
-20.781 -97.1005 -25.2251
-20.089 -99.9305 -25.1122
-18.9694 -99.4675 -25.0359
-18.4106 -98.7177 -25.0414
-20.8279 -98.6368 -25.2759
-17.4721 -99.5998 -25.0822
-16.0723 -98.3648 -25.0977
-14.8674 -99.1073 -24.8518
-23.4597 -93.9618 -25.4741
-25.372 -93.6236 -25.4759
-26.7386 -89.0221 -25.622
-27.2367 -89.6616 -25.6447
-26.4714 -89.1764 -25.5949
-24.4293 -90.0585 -25.4758
-23.9612 -90.845 -25.4481
-24.0608 -88.978 -25.5125
-21.5755 -89.0147 -25.3798
-22.2125 -88.9927 -25.4257
-22.1276 -90.1394 -25.4217
-22.6168 -90.9038 -25.4465
-23.103 -92.9033 -25.486
-24.0865 -91.8447 -25.4665
-24.1242 -93.4399 -25.4537
-24.9772 -91.3008 -25.4848
-25.8253 -92.0138 -25.4932
-25.4886 -90.551 -25.4545
-26.9213 -91.8741 -25.5112
-27.47 -90.5951 -25.6018
-28.0693 -92.6754 -25.4611
-28.1883 -90.279 -25.6427
-27.714 -93.6457 -25.4866
-26.6793 -93.381 -25.4642
-21.5323 -98.1076 -25.2961
-27.3807 -97.005 -25.4492
-26.9282 -95.4687 -25.4716
-26.334 -96.7183 -25.3936
-25.563 -97.8062 -25.3392
-26.9852 -94.8144 -25.4762
-26.265 -94.7703 -25.4478
-25.3592 -96.0053 -25.4031
-24.4845 -97.0344 -25.401
-23.4533 -97.4681 -25.3877
-22.0176 -97.571 -25.3458
-21.5025 -96.2258 -25.2592
-24.4209 -95.1379 -25.5018
-23.8853 -95.7847 -25.4499
-23.3802 -96.8579 -25.4089
-22.9131 -96.3949 -25.3789
-23.1896 -95.6451 -25.3698
-22.8187 -94.4543 -25.3951
-22.1611 -93.5501 -25.4258
-21.8147 -92.668 -25.4493
-21.1122 -90.7348 -25.3668
-20.7391 -90.0512 -25.3467
50.2946 -25.4676 26.9896
50.541 -23.7181 26.7361
50.1055 -24.0195 27.0141
50.4808 -26.6069 26.8879
50.049 -27.2171 27.1331
49.8269 -25.4676 27.1773
49.3917 -26.4011 27.2716
49.4133 -23.8578 27.2425
48.569 -24.8501 27.3511
48.9733 -23.6005 27.322
45.9561 -24.0195 27.4958
47.458 -25.666 27.4564
45.6649 -25.9454 27.5443
46.6325 -26.4893 27.5086
45.6942 -27.6434 27.6073
46.7349 -27.5993 27.5005
46.3525 -28.8342 27.5584
47.2151 -28.2756 27.4196
46.1775 -30.591 27.5696
47.3674 -30.3632 27.3978
46.8331 -31.2894 27.4515
47.8967 -32.2376 27.3214
45.5067 -29.3561 27.6533
50.494 -29.7751 26.9767
50.3164 -27.8125 27.0184
49.8841 -29.1871 27.2397
49.2889 -28.2535 27.3137
48.0217 -28.7387 27.3239
48.3476 -30.5175 27.3272
49.2383 -31.3923 27.3455
49.7436 -31.9803 27.2947
50.1446 -31.1203 27.1646
48.8164 -31.1865 27.3369
48.3099 -27.0039 27.2902
50.7542 -32.0171 26.7938
50.6358 -30.7601 26.8855
50.8153 -33.3623 26.6816
50.6714 -38.7283 27.0268
50.4201 -36.6554 27.1158
50.7592 -36.5525 26.8165
50.5799 -35.6189 26.9784
50.6877 -41.7568 27.0589
50.07 -41.1541 27.3717
49.5585 -40.6542 27.4939
49.0512 -40.3087 27.5073
48.5364 -41.7715 27.5364
48.1937 -40.566 27.4772
47.6794 -41.7348 27.58
47.906 -40.0956 27.4849
47.1538 -41.4407 27.5738
46.7957 -40.5586 27.5721
45.872 -41.5216 27.6234
46.415 -39.4781 27.5597
47.4596 -39.2943 27.5279
46.8337 -38.1329 27.5751
48.077 -39.1914 27.4986
48.0875 -37.8315 27.4682
49.2959 -39.1694 27.5237
49.0801 -37.7066 27.5045
49.6586 -38.5445 27.4823
49.4359 -36.7657 27.4528
49.9214 -36.9127 27.3607
49.6881 -35.2588 27.4036
50.258 -35.3984 27.1998
50.0458 -33.6416 27.2397
50.5098 -33.6343 26.9849
50.3262 -32.7154 27.1059
50.1561 -38.5298 27.3315
49.8548 -39.7427 27.4263
50.3625 -39.7133 27.2291
50.5464 -40.8306 27.1241
47.4279 -32.7007 27.3616
48.2352 -34.2076 27.3397
46.7564 -34.2223 27.4635
47.6037 -34.7957 27.3902
47.1501 -35.5087 27.4569
47.7373 -37.2729 27.4746
46.3269 -36.4863 27.6123
45.7912 -37.317 27.7023
46.0167 -38.4122 27.6094
45.7237 -38.8827 27.6283
45.3281 -36.1188 27.7472
46.2452 -35.5381 27.6016
45.6354 -34.0091 27.6231
45.8062 -32.6566 27.579
45.1876 -35.0603 27.7023
49.518 -33.796 27.3796
49.2118 -34.7516 27.4097
48.8982 -35.347 27.4055
50.9749 -42.8815 26.7359
51.1774 -48.0711 26.7582
50.9114 -43.7342 26.8367
50.4608 -43.7342 27.238
50.2618 -42.5066 27.3167
49.7442 -42.3449 27.5181
49.2902 -42.1611 27.5689
47.2021 -43.3005 27.5884
46.109 -42.977 27.5977
46.5627 -44.6089 27.6308
46.2493 -45.2558 27.6845
47.1098 -44.7339 27.6001
45.908 -46.895 27.6888
46.9361 -46.6671 27.6169
46.989 -47.9167 27.5885
47.8238 -46.5348 27.6
48.2137 -47.3728 27.5763
48.9171 -46.6083 27.6486
49.2739 -48.2108 27.6366
49.0993 -44.7559 27.6637
49.6633 -48.6003 27.639
50.06 -47.5786 27.5677
50.1344 -49.159 27.6021
50.5763 -47.7109 27.4105
50.3247 -50.2175 27.5834
50.795 -50.1146 27.3651
50.3382 -50.585 27.5882
47.5948 -50.7321 27.6339
46.7449 -49.1223 27.596
47.5757 -49.0634 27.5824
45.6513 -43.7562 27.6812
45.1195 -45.0352 27.8461
45.5999 -47.7991 27.7312
45.6662 -49.9308 27.6997
48.5416 -45.7997 27.6669
48.1053 -43.6607 27.6137
49.5042 -43.0505 27.5586
50.0067 -43.793 27.4804
49.6329 -45.3513 27.5782
50.1439 -45.1087 27.3823
50.2888 -44.5207 27.3263
50.5879 -45.0646 27.1362
50.831 -44.9103 26.9314
50.5581 -45.5057 27.1991
50.8795 -47.2625 27.1536
50.9498 -48.6812 27.155
51.0876 -50.0043 27.0308
51.1852 -50.1367 26.8582
50.2302 -46.1599 27.4499
49.0393 -49.2252 27.6738
49.7402 -49.8941 27.6848
50.3939 -17.1171 26.6468
50.5919 -20.3662 26.6203
50.2672 -18.0874 26.7645
50.0694 -17.0289 26.8988
50.1869 -15.8308 26.7673
50.067 -13.9122 26.7955
49.824 -15.2207 26.9504
49.6264 -13.8608 26.943
45.9486 -17.742 27.4118
45.9651 -16.3159 27.4518
46.4577 -16.5291 27.4279
46.31 -15.4559 27.4566
47.081 -15.4044 27.3613
46.6337 -14.2871 27.4145
50.3466 -22.5714 26.8716
49.8761 -22.9389 27.1318
50.239 -20.697 26.9487
49.5778 -22.3141 27.2618
50.0415 -20.0648 27.049
49.5362 -20.1824 27.1997
49.7056 -18.4329 27.092
49.2505 -18.602 27.195
49.5527 -17.0657 27.09
48.9257 -16.4335 27.1894
49.6953 -15.1692 26.9807
48.1298 -15.7058 27.2207
48.439 -14.39 27.1261
47.6304 -14.9928 27.2841
47.7165 -22.8066 27.4436
49.0014 -22.1965 27.3792
48.0662 -21.6599 27.4133
48.8142 -19.9472 27.2416
47.8822 -19.6458 27.3188
48.6033 -17.5949 27.2372
46.7825 -18.0654 27.3336
47.8564 -17.3303 27.265
46.0875 -19.2048 27.3851
46.8485 -20.7411 27.394
46.8052 -21.0498 27.4021
46.2384 -22.3068 27.4495
46.9537 -22.7699 27.4551
51.195 -53.0916 26.8958
51.3162 -54.106 26.6817
51.0962 -55.3998 27.1626
51.3095 -57.5388 26.829
51.0385 -57.8108 27.2759
51.1792 -58.318 27.0872
50.9128 -58.7003 27.3913
51.0845 -59.5677 27.2372
50.7654 -59.8911 27.5357
50.6136 -60.6703 27.6313
49.8164 -60.0087 27.7986
50.2175 -59.0017 27.7263
50.5573 -58.5753 27.6086
45.4735 -53.1211 27.8148
45.6813 -52.0478 27.776
50.7272 -52.974 27.4249
50.9868 -53.2166 27.2102
50.8892 -54.1428 27.333
47.7822 -59.3104 27.8793
46.0638 -58.4136 27.8179
45.6337 -57.1272 27.7932
46.543 -56.2304 27.6973
46.5728 -55.2601 27.6843
47.3831 -57.333 27.6976
47.5204 -53.6136 27.6992
48.1983 -56.2598 27.7336
49.4763 -54.5912 27.7587
49.2146 -55.8555 27.7783
50.2319 -57.5021 27.721
49.4676 -57.3551 27.7688
49.1841 -58.8473 27.8094
48.1199 -58.2078 27.8159
47.0458 -58.715 27.8267
46.0837 -60.0307 27.8591
50.5294 -51.7097 27.5093
50.0341 -51.4377 27.6556
50.2331 -53.0475 27.6268
49.6961 -52.5624 27.7111
50.4645 -54.4442 27.5964
50.1303 -56.0246 27.7189
50.6594 -55.5762 27.5347
50.6505 -55.8482 27.5368
50.857 -57.0096 27.4423
50.6291 -56.2598 27.5737
49.165 -53.2166 27.758
49.1018 -51.5039 27.7249
46.5238 -52.2463 27.6878
46.6094 -53.7826 27.7236
45.6831 -55.216 27.7556
45.2375 -55.9217 27.7884
45.1727 -54.5544 27.8336
50.9413 -51.7832 27.2229
51.109 0.818653 21.7099
50.9337 2.14914 22.9368
50.9778 1.68604 22.5192
50.9197 1.42141 23.6488
50.8834 1.50227 23.9667
50.1316 -5.53238 26.6426
50.1529 -3.87847 26.4979
50.2397 -0.666194 26.3896
49.884 -1.2322 26.7906
49.9745 -2.63619 26.6496
50.6881 1.51697 25.0526
50.5556 2.78865 25.5069
50.3977 1.26705 25.9732
51.1361 3.07533 21.5278
51.2171 2.86216 20.6165
51.2974 3.48697 19.6315
50.2011 -10.8837 26.6542
50.1977 -12.0966 26.7029
49.7119 -11.2219 26.9288
50.0132 -9.95018 26.7842
49.3923 -12.3171 27.0039
49.2315 -11.1189 27.0437
45.3257 -13.3756 27.3944
47.1781 -13.3683 27.4144
46.2379 -13.2213 27.4256
47.5849 -12.6111 27.3966
47.2779 -11.6041 27.3869
47.8541 -11.7217 27.3613
47.0584 -9.89872 27.3007
48.1787 -9.55324 27.1593
47.6987 -8.7079 27.1982
49.5031 -9.64145 26.9699
48.6883 -8.16395 27.0995
49.7242 -9.11954 26.928
49.3218 -8.48738 26.9945
49.8778 -7.80376 26.812
49.471 -6.96578 26.9795
49.4289 -5.95137 26.9933
49.0075 -4.88552 27.0584
49.7057 -5.15749 26.9004
45.5421 -4.53268 27.1959
48.1733 -5.20895 27.1206
48.0691 -7.2451 27.1491
45.1856 -6.77466 27.2657
46.7148 -5.87787 27.2018
45.9642 -7.56118 27.2624
46.769 -7.66409 27.2789
46.8558 -8.37712 27.2705
45.0998 -8.97988 27.2718
45.2023 -11.3689 27.3136
45.8305 -11.4571 27.3197
45.8784 -9.22245 27.2685
46.5307 -8.95783 27.299
47.2626 -5.22365 27.153
48.4603 -12.8684 27.181
50.1906 -8.82551 26.6347
51.9852 8.26495 12.6468
52.1637 9.58073 10.5727
52.0623 10.3599 11.9101
51.9024 9.86741 13.2292
51.9404 8.55163 13.0825
51.4611 5.68484 17.9881
51.5453 6.70659 17.2197
51.6722 6.26555 16.3195
51.6273 5.2438 16.6555
51.2879 5.11883 19.9012
51.3259 5.42757 19.2635
51.3289 4.3176 18.9494
51.6779 5.13353 16.3242
51.8037 7.89006 14.8354
51.8564 6.55223 14.3
51.8519 8.60308 14.3011
51.1677 -61.4421 27.2196
50.9 -61.3392 27.4682
50.4711 -61.3759 27.6907
50.7392 -63.0519 27.6078
50.0327 -62.3021 27.7917
50.2505 -63.1034 27.7565
50.02 -64.7867 27.7767
50.6009 -65.0881 27.6582
50.6612 -66.2274 27.664
50.957 -65.5511 27.4727
51.1999 -66.0731 27.26
51.0605 -64.6764 27.3626
51.3225 -64.1986 27.0096
51.349 -63.7649 26.9455
51.3868 -63.0592 26.8408
51.4714 -63.8605 26.6372
51.4537 -65.9775 26.7911
51.4262 -68.462 27.0072
51.0669 -67.9916 27.4489
50.6857 -69.1604 27.6622
50.4517 -67.33 27.7232
51.5148 -68.8884 26.8287
49.1239 -69.5647 27.8615
49.9828 -68.1974 27.8054
45.9082 -64.5441 27.7965
46.2438 -64.9998 27.7876
45.9216 -66.6611 27.8433
47.0719 -66.2127 27.8465
47.4117 -66.5508 27.8785
46.0892 -62.971 27.8059
46.0425 -61.67 27.8628
46.539 -62.53 27.814
46.694 -61.3612 27.8615
47.4453 -63.2798 27.8327
47.6373 -61.545 27.8854
48.0346 -62.6329 27.8459
49.1145 -60.7732 27.8398
48.3019 -63.64 27.8231
49.4797 -64.5661 27.8098
48.6563 -64.9704 27.8077
48.7478 -68.3959 27.856
47.1981 -69.4764 27.9546
45.95 -69.6014 27.9165
46.099 -68.5209 27.8935
45.5149 -69.3735 27.9189
45.3899 -68.1386 27.9163
51.5878 -75.2615 26.8994
51.5035 -74.203 27.019
51.1903 -75.8422 27.4798
50.6937 -76.1068 27.7202
51.6076 -72.0272 26.6911
51.5647 -70.5938 26.7151
51.8437 -77.746 26.2264
51.5736 -79.2382 27.1123
48.3697 -71.3876 27.863
50.0014 -71.7184 27.7911
45.4693 -79.0324 27.9236
47.413 -70.2189 27.9341
46.8488 -72.4902 27.9009
47.4915 -72.0124 27.9017
46.9202 -73.8575 27.9001
47.8802 -74.3573 27.8722
46.7116 -76.8198 27.9991
48.5434 -75.4967 27.8462
48.5336 -77.6652 27.8584
49.8272 -78.6869 27.834
45.4693 -79.0324 27.9236
46.7073 -79.4293 27.9581
46.7563 -78.4958 27.9546
45.584 -76.4817 27.9645
45.5966 -75.0851 27.9296
45.6105 -72.5417 27.8505
45.7612 -73.3209 27.857
46.464 -70.3732 27.9055
51.2343 -70.4614 27.3038
50.888 -70.5276 27.5768
51.1236 -72.1668 27.4376
50.7401 -71.3068 27.6475
50.4643 -71.1377 27.7382
51.3986 -73.0268 27.1654
50.9299 -74.0927 27.6049
50.1985 -73.7252 27.7747
49.3263 -73.1298 27.8339
49.5937 -75.4746 27.819
50.3494 -76.6581 27.7892
50.4956 -78.5914 27.7888
50.9164 -77.4593 27.65
51.1316 -78.4517 27.5455
51.3691 -76.8125 27.344
51.4595 -78.0915 27.2449
51.5456 -77.1506 27.1049
51.651 -78.018 26.9324
51.6806 -77.3344 26.8117
51.7761 -78.0474 26.5936
51.7129 -76.1877 26.6104
51.7336 -74.4676 26.3421
52.6951 15.3952 1.85418
52.6777 17.6298 1.72453
52.5837 15.7627 3.04614
52.5474 15.1893 4.05478
52.498 14.2558 5.3739
52.4328 12.0873 6.48515
52.4029 11.0876 7.08904
52.3496 11.3229 7.74234
52.2481 13.0576 9.57076
52.2199 11.3743 10.1962
52.3627 15.1526 7.63147
52.3492 13.4619 7.67656
52.9202 -100.548 10.924
52.8779 -99.7027 11.3212
52.9206 -99.1955 9.55851
52.8992 -100.599 9.25412
52.9599 -99.1881 7.64489
53.1289 -98.8132 6.04015
53.1896 -99.2616 5.37112
52.811 -101.063 12.2113
52.8267 -101.577 11.8702
52.7318 -101.349 12.9525
52.7141 -102.555 13.0565
53.0545 -102.349 5.26514
53.0723 -101.092 5.41067
53.0838 -100.563 5.47782
51.8892 -82.1932 26.3634
51.7572 -80.0762 26.7917
51.9583 -90.5878 26.5588
52.0214 -88.2282 26.2425
51.9375 -84.7586 26.4778
51.9063 -86.7213 26.6768
51.9226 -87.721 26.659
52.3839 -98.5339 20.7596
51.9886 -94.05 26.5197
51.9631 -93.1385 26.7233
51.9778 -97.2034 26.4344
51.9237 -96.0935 26.8064
52.1209 -98.4678 24.3766
52.068 -100.893 24.8961
52.0353 -99.2249 25.7721
52.1661 -98.431 23.3659
52.2653 -98.3648 22.2247
52.2554 -100.313 22.3289
52.7698 -104.194 12.1651
52.7777 -103.099 12.0734
52.4311 -104.069 18.2552
52.5004 -104.848 17.0772
52.5119 -105.164 16.9447
52.5714 -104.37 15.7789
52.5874 -105.51 15.6953
52.5578 -106.37 15.2252
52.5476 -107.164 14.0817
52.552 -107.708 15.512
52.4578 -107.693 16.5262
52.511 -106.532 16.8052
52.3615 -106.965 18.3355
52.7186 -106.723 12.5644
52.7347 -105.598 12.5386
52.6213 -106.039 13.5933
52.6959 -103.51 12.7953
52.6138 -105.414 13.9005
52.5683 -104.782 14.7037
52.607 -102.356 14.6387
52.5916 -102.106 15.9778
52.5123 -104.032 17.3598
52.5329 -101.842 17.1833
52.474 -103.106 18.1314
52.3886 -102.753 19.6346
52.3814 -104.187 19.1672
52.4331 -100.577 19.2828
52.2739 -105.995 21.2745
52.2343 -105.811 21.9905
52.3331 -104.319 20.6338
52.2842 -104.503 21.7272
52.2794 -102.275 21.912
52.17 -104.841 23.0915
52.1654 -102.187 23.0347
52.0954 -104.628 24.5304
52.1019 -103.15 24.3751
52.0777 -105.15 25.5246
52.0369 -102.724 25.7937
52.1506 -106.017 22.9743
52.32 -101.158 21.4853
52.3537 -101.629 20.8066
52.3277 -106.296 19.7048
52.2696 -107.524 20.7346
52.0104 -101.687 25.9996
52.045 -106.149 26.1012
52.1128 -105.936 23.8196
52.199 -99.3645 22.7474
52.1395 -100.122 23.9132
52.7498 18.3355 -1.64806
52.8072 18.7691 -0.296117
52.8099 18.3722 -0.226877
52.7743 18.725 0.372345
52.7075 19.8644 -2.09125
36.4836 -113.279 -22.5296
34.6031 -110.2 -22.7565
35.6117 -111.758 -22.6541
34.9341 -113.324 -22.5728
34.6637 -112.339 -22.643
34.2405 -113.551 -22.6074
33.2179 -113.706 -22.6387
31.5579 -113.507 -22.7317
31.6052 -114.573 -22.7149
30.9148 -114.573 -22.7064
31.0455 -115.147 -22.6493
30.2411 -114.838 -22.6998
30.1875 -115.646 -22.5036
32.1589 -115.279 -22.6014
33.6355 -114.713 -22.621
34.9443 -115.198 -22.4693
35.5132 -114.566 -22.5212
36.3686 -115.154 -22.3868
30.2565 -111.493 -22.8572
29.5194 -113.574 -22.7419
29.6497 -111.853 -22.8504
29.212 -110.604 -22.9172
32.136 -115.705 -22.4284
33.8593 -115.595 -22.3442
35.8338 -115.573 -22.2571
28.8376 -115.727 -22.4519
35.8338 -115.573 -22.2571
33.8593 -115.595 -22.3442
36.2257 -116.418 -21.5527
36.6717 -116.132 -21.8112
36.9179 -115.852 -22.0228
34.3689 -116.234 -21.8631
33.6023 -115.911 -22.168
32.4142 -116.33 -21.9168
32.136 -115.705 -22.4284
31.4807 -116.22 -22.0528
30.1875 -115.646 -22.5036
29.8019 -116.308 -21.9898
36.04 -116.903 -20.5369
35.2985 -116.962 -20.3707
34.3748 -116.83 -20.9602
33.7979 -117.028 -20.126
31.5604 -116.97 -20.7481
31.8132 -117.124 -19.9751
28.9652 -117.036 -20.6574
29.4901 -116.837 -21.2738
30.0744 -116.631 -21.6326
31.2073 -116.859 -21.1682
32.7006 -116.734 -21.3394
35.2903 -116.609 -21.3769
32.7355 -116.558 -21.621
37.4421 -111.067 -22.6709
44.9276 -117.087 -17.6584
43.8909 -117.05 -18.4589
42.0574 -117.014 -18.7767
43.9311 -116.911 -19.151
42.0126 -116.867 -19.7224
43.3981 -116.734 -20.3233
41.0814 -116.756 -20.4957
42.5509 -116.639 -20.8829
41.2551 -116.543 -21.1533
39.2455 -116.771 -20.6752
40.0681 -116.639 -21.0541
37.3161 -116.683 -21.1402
38.9415 -116.44 -21.4901
38.3621 -116.021 -21.9488
38.4663 -116.955 -19.9552
37.4847 -116.823 -20.7386
37.4194 -117.043 -19.7771
39.5964 -117.168 -19.019
40.3593 -117.153 -18.8808
40.7753 -116.97 -19.5754
45.0757 -116.756 -19.9929
37.676 -111.743 -22.64
37.7318 -113.044 -22.5414
37.5933 -113.823 -22.4988
39.1763 -113.507 -22.4516
40.0976 -113.647 -22.4145
41.4333 -113.375 -22.353
42.4415 -112.956 -22.3663
37.8429 -114.683 -22.4597
38.0608 -115.125 -22.3951
40.3229 -114.603 -22.3656
41.7915 -115.132 -22.2016
41.5409 -114.647 -22.3304
42.6164 -114.617 -22.2776
44.0928 -114.61 -22.2632
43.4926 -113.691 -22.3118
44.8771 -112.125 -22.3616
44.0418 -112.309 -22.3969
38.0024 -115.492 -22.2636
39.6272 -115.463 -22.1962
41.0315 -115.617 -22.0131
42.1085 -115.61 -21.9966
43.8458 -115.125 -22.1832
44.1101 -115.441 -22.0417
45.0142 -114.978 -22.1683
41.0791 -116.433 -21.3396
42.9662 -116.007 -21.7091
44.1101 -115.441 -22.0417
42.1085 -115.61 -21.9966
40.6621 -116.073 -21.7247
41.0315 -115.617 -22.0131
39.6272 -115.463 -22.1962
38.0024 -115.492 -22.2636
44.6277 -109.531 -22.4847
43.8766 -111.221 -22.4479
42.6056 -110.891 -22.4627
41.2493 -112.03 -22.4475
40.852 -109.876 -22.5498
39.8154 -111.398 -22.5598
45.4585 -116.617 -20.8753
45.8818 -116.764 -18.8308
47.1786 -116.727 -20.0438
47.0407 -116.771 -18.9374
48.5656 -116.72 -18.8006
46.9504 -116.955 -17.9979
48.2699 -116.948 -17.5693
45.6286 -117.036 -17.6894
45.4117 -116.8 -18.7463
48.6269 -116.676 -19.9868
50.2413 -116.83 -18.9987
49.6268 -116.962 -17.8522
50.7661 -116.867 -18.6329
50.0966 -117.058 -17.3537
50.3387 -117.072 -17.1571
50.5795 -117.117 -16.2754
51.3964 -116.8 -16.5592
50.8336 -117.043 -16.928
45.3043 -113.331 -22.2644
45.3585 -112.155 -22.337
46.0799 -115.514 -21.8617
46.5577 -115.029 -22.0458
47.7323 -115.191 -21.9525
46.9091 -114.522 -22.1463
49.983 -114.448 -22.082
49.1307 -114.228 -22.1313
51.085 -112.464 -22.1932
49.4481 -112.831 -22.2019
49.2494 -111.265 -22.3069
47.9661 -112.375 -22.221
47.0698 -112.89 -22.1941
46.4261 -112.566 -22.2424
45.3015 -114.382 -22.2417
52.7541 -115.566 -21.1041
52.703 -115.308 -20.0062
53.1557 -114.706 -20.5617
52.9331 -114.838 -19.7009
53.1861 -114.242 -19.5109
53.0965 -114.36 -18.4897
53.1149 -114.272 -17.48
52.3476 -115.823 -19.789
52.484 -115.345 -18.3458
53.1748 -113.728 -16.5079
45.3748 -116.212 -21.4645
45.5257 -115.874 -21.6996
47.6067 -115.882 -21.5377
47.3449 -116.279 -21.2267
45.8274 -116.396 -21.2374
49.0836 -115.83 -21.5493
51.2234 -116.146 -21.1537
48.5357 -116.426 -20.9595
50.8763 -116.47 -20.7628
49.3829 -116.602 -20.4498
50.7588 -116.734 -20.0405
50.2155 -116.756 -19.7931
48.529 -116.639 -20.3211
47.2704 -116.543 -20.7201
50.5146 -115.771 -21.5142
51.7024 -115.661 -21.4819
51.973 -116.08 -20.9127
52.2935 -115.558 -21.5389
52.4757 -115.735 -21.0826
52.7541 -115.566 -21.1041
52.3476 -115.823 -19.789
52.703 -115.308 -20.0062
51.8715 -116.33 -19.7749
51.6338 -116.477 -20.1223
51.4194 -116.455 -20.577
52.015 -116.154 -19.2537
51.2353 -116.764 -18.2081
51.2827 -116.69 -19.8641
50.7731 -109.06 -22.3176
51.2519 -109.509 -22.2624
50.2227 -111.118 -22.288
51.8439 -110.42 -22.2298
52.3923 -112.853 -22.155
52.5072 -113.75 -22.1061
50.5781 -114.706 -22.0142
51.6577 -114.588 -21.9784
51.5292 -115.022 -21.8404
52.5401 -114.397 -22.034
52.6005 -115.022 -21.8286
53.0234 -114.838 -21.8222
52.6547 -110.868 -22.1927
53.0168 -110.633 -22.1161
52.9358 -113.125 -22.0951
53.0223 -114.022 -22.0196
50.4105 -115.227 -21.8271
49.0836 -115.83 -21.5493
50.5146 -115.771 -21.5142
51.7024 -115.661 -21.4819
52.2935 -115.558 -21.5389
50.0994 -108.707 -22.3609
51.6689 -116.47 -16.4016
51.4794 -116.551 -17.9241
51.0284 -116.896 -17.7882
52.484 -115.345 -18.3458
52.6886 -114.992 -17.3379
52.0142 -115.852 -17.3631
52.1514 -115.691 -16.9202
53.0234 -114.838 -21.8222
53.22 -109.288 -22.0121
51.6689 -116.47 -16.4016
52.1514 -115.691 -16.9202
52.6886 -114.992 -17.3379
47.6067 -115.882 -21.5377
45.5257 -115.874 -21.6996
48.6378 -116.925 -17.6797
48.8388 -117.087 -16.2398
52.6005 -115.022 -21.8286
52.9445 -115.308 -21.5142
53.0234 -114.838 -21.8222
53.3672 -110.604 -21.865
53.4482 -111.853 -21.7363
53.3266 -113.89 -21.8375
53.482 -113.596 -21.6245
53.5085 -113.809 -21.2395
53.5409 -112.162 -21.1912
53.4793 -111.596 -19.4221
53.5832 -110.685 -20.7979
53.587 -109.479 -20.4814
53.2591 -112.728 -21.9614
53.4482 -111.853 -21.7363
53.5262 -109.994 -21.5431
53.3672 -110.604 -21.865
53.4916 -110.832 -18.1414
53.3364 -113.346 -18.1468
53.3173 -113.86 -19.879
53.3524 -113.324 -19.1128
53.3964 -113.529 -20.0294
53.3036 -114.926 -21.4728
53.3561 -111.42 -16.7321
53.3036 -114.926 -21.4728
53.2835 -113.382 -17.3778
53.2591 -112.728 -21.9614
53.3266 -113.89 -21.8375
53.3976 -109.766 -13.8574
53.3135 -110.788 -14.2708
53.2916 -110.839 -13.3174
53.263 -112.184 -16.1114
53.3271 -110.545 -15.8889
53.293 -111.295 -14.785
53.1847 -110.802 -10.9867
53.1903 -110.192 -10.0498
53.0844 -113.412 -12.3645
53.1666 -111.28 -11.5394
53.1353 -110.369 -7.49569
53.1033 -109.986 -7.03702
53.0725 -109.442 -6.42295
53.1369 -110.824 -8.41432
52.9572 -109.464 -1.60296
52.9703 -108.972 -1.17285
53.1455 -109.097 -3.5396
53.0274 -110.207 -2.89103
53.1411 -109.112 -4.12944
53.0328 -110.317 -3.93433
53.0494 -109.611 -5.12597
52.9705 -110.824 -4.66826
53.0087 -110.773 -5.93885
52.8369 -113.044 -4.90237
52.8554 -113.287 -6.15636
52.8179 -113.353 -5.59459
52.6127 -114.132 -5.64417
52.7555 -113.654 -4.70557
52.7429 -113.713 -2.93997
52.852 -113.169 -3.6443
52.8625 -113.015 -2.6347
52.9648 -111.324 -3.29153
52.9004 -111.839 -2.48989
52.9578 -113.537 -8.78546
53.0459 -112.442 -8.63847
52.9645 -113.066 -7.50147
53.0262 -112.17 -7.68167
53.1384 -108.178 -4.98918
53.1462 -107.781 -5.97912
53.0541 -109.31 -5.56025
51.1437 -115.793 -2.57022
52.2517 -114.61 -2.41135
52.0478 -114.882 -3.4374
52.4545 -114.367 -3.41317
52.2709 -114.661 -4.77337
52.6316 -114.059 -3.86999
52.549 -114.132 -2.18976
52.7504 -113.478 -2.1153
50.8301 -116.565 -8.34944
50.728 -116.815 -8.07594
50.8643 -116.308 -7.7227
50.6738 -117.006 -6.97127
50.9813 -116.117 -6.98763
50.8921 -116.234 -6.74109
51.2593 -115.816 -6.88325
51.2705 -115.735 -5.89178
52.0808 -114.919 -6.36961
51.1437 -116.058 -8.83635
51.1373 -116.029 -8.23198
51.3192 -115.823 -8.03317
52.1491 -115.066 -8.18624
52.575 -114.5 -7.65351
52.4034 -114.566 -6.7089
52.6321 -114.11 -6.50912
52.896 -113.772 -7.81477
52.541 -114.566 -8.0228
52.7566 -114.228 -8.80207
50.7225 -116.734 -6.10039
50.8272 -116.301 -4.82346
51.3021 -115.668 -4.54377
51.0864 -115.889 -3.62275
50.628 -116.881 -4.01211
50.6483 -116.345 -2.42389
50.598 -116.72 -3.31636
52.9655 -110.016 -2.07799
21.9725 -110.655 -23.2145
21.4414 -112.045 -23.1676
20.6823 -112.883 -23.139
20.8443 -113.772 -23.0812
28.6809 -116.058 -22.2295
27.2488 -116.382 -22.0128
27.036 -115.904 -22.4459
25.7738 -116.293 -22.2631
26.0364 -115.926 -22.5424
23.1143 -116.007 -22.5526
25.9449 -115.595 -22.7405
23.1526 -115.691 -22.7332
25.9151 -117.131 -20.4558
24.2903 -117.131 -20.7228
24.618 -116.992 -21.1811
22.5713 -117.109 -20.9578
22.4939 -116.83 -21.7181
21.3225 -116.984 -21.4688
27.3209 -117.095 -20.4507
26.9021 -116.911 -21.1149
25.4762 -116.83 -21.5105
27.028 -116.72 -21.5637
25.6522 -116.683 -21.7734
23.0188 -116.734 -21.8434
24.435 -116.44 -22.1682
23.1158 -116.484 -22.1397
21.2474 -115.72 -22.8166
28.6575 -115.411 -22.6212
27.9764 -111.876 -22.9403
27.1136 -111.317 -23.0091
28.4523 -109.303 -23.0122
27.907 -114.242 -22.8022
27.0694 -113.61 -22.841
25.415 -112.111 -23.0372
26.0693 -111.111 -23.0612
25.7964 -109.545 -23.1428
26.7223 -115.624 -22.6497
28.6575 -115.411 -22.6212
20.7979 -114.816 -23.0584
20.8924 -115.316 -22.9748
23.2935 -114.816 -22.964
23.4894 -115.294 -22.8862
24.4716 -115 -22.9193
24.7887 -115.316 -22.8561
25.1286 -114.83 -22.924
26.3757 -115.169 -22.8337
26.6552 -114.617 -22.8575
27.0013 -114.889 -22.8469
25.6979 -113.647 -22.91
23.567 -113.963 -22.9583
23.4036 -113.427 -22.9799
24.8201 -113.581 -22.9473
22.5884 -113.493 -23.0159
23.2193 -111.89 -23.0902
21.8555 -111.92 -23.1591
21.2474 -115.72 -22.8166
23.1526 -115.691 -22.7332
25.9449 -115.595 -22.7405
26.7223 -115.624 -22.6497
28.6143 -115.058 -22.7049
23.1857 -110.846 -23.1442
22.683 -110.619 -23.1739
19.4471 -112.243 -23.246
19.8862 -110.148 -23.3153
14.873 -110.641 -23.441
14.4318 -112.074 -23.4171
14.7729 -112.633 -23.3795
16.9346 -112.243 -23.2965
15.8447 -112.537 -23.3439
17.055 -110.707 -23.3508
13.8719 -115.044 -23.3096
13.744 -114.029 -23.3394
12.6898 -114.051 -23.3373
13.2919 -112.015 -23.4508
11.4995 -111.831 -23.4808
8.22897 -111.787 -23.6546
10.1668 -113.529 -23.4572
9.87418 -111.942 -23.5721
10.2366 -112.309 -23.5295
10.153 -113.993 -23.428
9.51445 -114.985 -23.4456
7.46918 -115.014 -23.5081
9.33067 -115.404 -23.4324
6.59696 -115.602 -23.4489
5.1869 -115.985 -23.3452
9.38982 -115.654 -23.3824
11.0059 -115.022 -23.3549
12.2574 -114.978 -23.3155
11.2518 -113.743 -23.3827
5.1869 -115.985 -23.3452
4.76387 -115.294 -23.5512
5.86695 -115.235 -23.5149
5.11919 -113.801 -23.5768
8.09688 -114.051 -23.5258
6.04076 -111.898 -23.6735
7.13868 -111.853 -23.668
7.57229 -110.038 -23.7339
4.62837 -113.463 -23.6232
5.01545 -111.596 -23.7241
5.24753 -110.655 -23.7227
4.79667 -109.509 -23.7785
3.3972 -109.112 -23.8968
3.4562 -113.463 -23.7051
3.65741 -115.11 -23.6386
-3.49148 -115.308 -23.8774
-1.59481 -115.661 -23.7261
-1.00364 -115.94 -23.5835
3.22471 -115.985 -23.483
1.6919 -116.087 -23.5281
0.425335 -116.411 -23.3443
-1.00364 -115.94 -23.5835
-1.51697 -116.176 -23.4909
-1.59481 -115.661 -23.7261
-3.05988 -108.34 -24.1804
-2.74094 -109.722 -24.0876
-1.4523 -109.626 -24.085
-0.956906 -108.641 -24.1814
-0.318345 -109.634 -24.1138
1.04399 -109.979 -24.0586
-0.154758 -110.788 -23.9347
1.51052 -111.287 -23.8528
0.420952 -111.67 -23.8344
2.87357 -111.824 -23.8157
1.11596 -112.272 -23.836
2.49907 -112.655 -23.7996
1.1062 -112.728 -23.8237
2.33802 -113.331 -23.7678
0.192972 -114.242 -23.7529
1.7446 -115.154 -23.7142
-0.166781 -115.169 -23.7262
2.10046 -115.58 -23.666
0.47001 -115.757 -23.6383
1.6919 -116.087 -23.5281
0.425335 -116.411 -23.3443
0.405265 -107.891 -24.0842
2.2206 -108.582 -23.9777
1.4469 -109.509 -24.0515
2.90923 -109.928 -23.9159
2.08531 -110.868 -23.892
3.11417 -111.493 -23.8323
-2.43566 -110.736 -23.9577
-3.00975 -111.552 -23.9866
-1.28251 -110.648 -23.9272
-1.01454 -111.53 -23.8684
-0.680704 -112.647 -23.857
-0.0286574 -112.544 -23.8346
-0.806588 -113.75 -23.7995
-3.2427 -115.088 -23.8779
-2.56351 -113.096 -23.9377
3.22471 -115.985 -23.483
4.14215 -111.618 -23.7624
53.0137 -107.766 -0.440436
52.8854 -110.133 0.104719
53.0144 -107.869 0.581446
52.8025 -109.663 3.20035
52.8277 -110.148 2.29016
52.9679 -108.751 1.38686
52.7969 -109.413 3.59492
52.992 -105.532 5.90464
52.8141 -109.244 5.33958
52.8415 -108.943 6.40511
-29.2107 -39.9118 -26.3567
-32.575 -41.5142 -26.3328
-31.7332 -39.5884 -26.4028
-32.4919 -40.4704 -26.3583
-32.719 -39.6398 -26.3868
-36.3724 -40.9188 -26.4188
-35.2087 -40.691 -26.4187
-35.3064 -39.4413 -26.4457
-35.5602 -38.3681 -26.4679
-34.3935 -38.6107 -26.4825
-33.9699 -36.8759 -26.5441
-33.4146 -38.5004 -26.5088
-32.931 -37.2876 -26.4388
-32.4964 -37.9197 -26.4072
-32.3644 -36.1997 -26.4442
-31.7211 -38.8386 -26.4117
-31.2535 -36.9862 -26.4077
-30.6437 -38.8386 -26.3793
-30.86 -39.4707 -26.3724
-29.9518 -39.5148 -26.3662
-30.6325 -40.2352 -26.328
-31.4742 -41.7495 -26.3499
-30.2662 -35.3543 -26.4101
-31.7097 -34.7295 -26.4024
-32.4344 -34.5384 -26.4297
-33.4147 -35.2147 -26.417
-32.9145 -33.7592 -26.4487
-34.0325 -33.3182 -26.4535
-36.339 -37.7654 -26.4725
-36.2147 -35.7954 -26.5018
-34.9982 -35.9056 -26.58
-34.0084 -35.9497 -26.5211
-33.1553 -35.7366 -26.44
-34.673 -34.5898 -26.5086
-35.56 -34.2958 -26.5098
-36.1914 -33.9062 -26.5092
-35.0152 -33.252 -26.4941
-33.8374 -40.2132 -26.4075
-32.0366 -33.1859 -26.4034
-32.7679 -38.9268 -26.4252
-29.9679 -36.7804 -26.3904
-29.8086 -38.4416 -26.4018
-33.5721 -32.0979 -26.4679
-33.6666 -31.2232 -26.5016
-32.7055 -31.9436 -26.4818
-32.6576 -30.4808 -26.6328
-31.8353 -32.245 -26.4288
-31.5304 -31.0394 -26.5144
-30.2318 -32.0171 -26.4661
-30.1841 -31.3702 -26.5252
-29.621 -30.9659 -26.5398
-31.1385 -30.1353 -26.5006
-30.2638 -24.0195 -26.5484
-30.4868 -25.6073 -26.494
-31.4476 -25.1294 -26.5058
-31.8619 -27.1509 -26.5223
-32.6807 -25.3206 -26.5176
-33.1188 -27.9742 -26.5005
-33.5497 -25.0412 -26.515
-34.3284 -27.173 -26.5118
-35.0349 -25.1074 -26.5274
-34.8678 -28.4299 -26.5387
-36.0265 -24.6149 -26.5659
-34.6121 -31.7745 -26.479
-35.2517 -32.1862 -26.4944
-35.9787 -31.8774 -26.5253
-34.9353 -29.7016 -26.5129
-33.7825 -29.4884 -26.5482
-33.1099 -30.4734 -26.6024
-33.4862 -29.1871 -26.5659
-33.772 -28.2756 -26.5287
-32.2023 -28.7019 -26.5282
-32.1673 -30.2603 -26.5603
-31.5551 -28.7387 -26.5205
-33.2511 -23.6005 -26.5293
-34.7508 -24.1003 -26.5442
-32.2529 -23.8872 -26.5462
-31.6446 -22.667 -26.5314
-29.2887 -15.7352 -26.5499
-30.5241 -15.0663 -26.615
-29.8273 -16.4923 -26.637
-30.9789 -16.5585 -26.596
-30.9641 -17.1613 -26.5855
-31.2648 -17.5802 -26.5588
-31.4853 -19.293 -26.5429
-32.0562 -20.6161 -26.5286
-31.1511 -21.2042 -26.5156
-31.996 -22.3068 -26.5307
-30.1372 -21.3732 -26.5243
-35.932 -22.689 -26.5821
-36.0491 -18.1316 -26.6265
-35.8672 -19.5282 -26.6273
-34.357 -19.293 -26.5929
-33.8953 -20.594 -26.5516
-33.9628 -19.1313 -26.5757
-33.3768 -18.6241 -26.6136
-32.6978 -19.3224 -26.5814
-32.4197 -17.764 -26.6188
-35.3018 -17.2789 -26.6384
-35.9187 -16.3747 -26.6352
-35.6707 -14.7208 -26.6176
-34.9028 -14.5664 -26.6063
-34.4028 -15.7352 -26.5961
-34.0597 -14.6179 -26.6208
-33.5443 -15.8161 -26.668
-33.3317 -14.4709 -26.6421
-32.1601 -15.5514 -26.6339
-32.9497 -13.8755 -26.6241
-31.6137 -14.4415 -26.5966
-32.9579 -17.2348 -26.6401
-33.9411 -17.3156 -26.6047
-30.1386 -19.5649 -26.5878
-29.6666 -19.4032 -26.5849
-30.3794 -18.3006 -26.5792
-29.8705 -18.4182 -26.571
-29.4535 -17.198 -26.5851
-35.036 -20.7117 -26.5751
-34.1481 -21.7702 -26.5341
-32.476 -21.8657 -26.5417
-33.3111 -22.836 -26.5192
-33.9317 -22.9095 -26.5331
-34.7649 -22.8654 -26.5729
-30.2817 -13.3536 -26.5522
-31.9873 -13.5373 -26.5907
-30.7365 -12.2583 -26.5831
-31.4257 -12.0672 -26.6188
-30.9428 -10.2589 -26.6304
-31.7868 -9.88402 -26.6557
-33.1557 -11.4571 -26.6056
-34.0363 -12.4494 -26.6203
-34.6095 -13.6623 -26.6094
-35.8939 -12.6626 -26.6709
-32.3819 -12.3171 -26.6237
-30.6438 -5.95873 -26.5789
-30.9347 -7.1128 -26.6144
-31.07 -8.186 -26.6285
-32.4465 -8.33302 -26.6205
-34.8549 -5.91463 -26.6076
-34.6235 -7.96548 -26.5881
-31.8799 -7.21571 -26.6259
-35.8532 -4.51799 -26.6486
-35.0149 -4.7091 -26.578
-36.1034 -5.10604 -26.6617
-35.5272 -6.64235 -26.6872
-36.3806 -11.0381 -26.6844
-35.4714 -8.98723 -26.6884
-35.397 -9.59734 -26.7038
-35.0769 -11.288 -26.6553
-34.3504 -9.6488 -26.5984
-34.3296 -11.5085 -26.6173
-33.7431 -10.1854 -26.6313
-32.0981 -9.25186 -26.6565
-33.2546 -8.47268 -26.6383
-34.0224 -7.05399 -26.5996
-32.691 -6.94373 -26.6289
-32.8856 -6.03959 -26.6511
-31.9209 -4.58414 -26.6143
-33.4725 -5.61325 -26.6529
-33.4231 -4.76056 -26.6406
-34.1219 -4.97373 -26.6062
-30.2521 -4.47388 -26.5732
-29.4276 -4.78261 -26.5732
-32.2848 -45.4763 -26.3291
-32.2678 -44.6751 -26.3152
-34.3676 -44.1164 -26.3708
-32.5798 -43.4916 -26.3477
-32.8261 -42.9329 -26.3357
-31.6667 -42.4919 -26.3266
-33.6136 -42.1097 -26.3802
-35.0921 -43.227 -26.3902
-35.5056 -44.7559 -26.3749
-35.914 -46.8068 -26.3288
-36.258 -45.197 -26.3938
-36.2738 -43.4622 -26.402
-31.1717 -42.8447 -26.3391
-36.2283 -48.8209 -26.3149
-36.28 -50.3278 -26.2808
-34.9818 -50.9673 -26.2983
-35.5339 -48.8503 -26.3403
-34.2202 -48.8503 -26.3156
-34.9647 -48.2622 -26.3343
-36.2933 -49.8867 -26.2777
-32.0013 -46.9244 -26.27
-32.3559 -47.4169 -26.2625
-33.3172 -45.5498 -26.3481
-34.0206 -46.4686 -26.3206
-32.2729 -48.9679 -26.2461
-34.2988 -50.1587 -26.2911
-33.1873 -50.4454 -26.3227
-33.221 -48.4313 -26.2848
-32.7062 -50.6439 -26.314
-32.0355 -50.2102 -26.2559
-31.1352 -51.2907 -26.2579
-30.9836 -49.5706 -26.2116
-29.2595 -50.1367 -26.1955
-36.1419 -51.548 -26.2893
-36.351 -54.0472 -26.314
-35.2703 -53.2607 -26.2805
-35.7027 -54.503 -26.3086
-35.5383 -55.0322 -26.2894
-35.6208 -56.3701 -26.24
-34.3068 -54.3266 -26.2493
-34.7582 -55.9805 -26.279
-33.9139 -55.613 -26.2378
-34.5568 -57.2301 -26.2545
-35.9351 -57.7226 -26.2261
-35.9779 -59.2001 -26.244
-32.1314 -59.7 -26.1536
-33.0578 -58.7517 -26.1715
-33.2369 -59.8984 -26.2012
-33.7201 -59.0164 -26.2055
-33.6281 -60.119 -26.2331
-34.5401 -58.8105 -26.2065
-35.4541 -58.5239 -26.2173
-31.8294 -53.1799 -26.3164
-30.7282 -54.4001 -26.2177
-30.9903 -55.2087 -26.214
-30.1829 -60.1998 -26.1283
-31.6752 -60.2733 -26.1589
-29.8182 -58.987 -26.1321
-30.4519 -57.2522 -26.1349
-31.305 -58.8767 -26.1661
-31.2045 -57.0022 -26.1617
-31.8011 -57.3771 -26.2012
-32.3434 -54.5251 -26.2555
-32.8845 -55.4733 -26.2541
-32.7845 -54.3119 -26.2736
-33.4621 -54.3707 -26.2422
-32.7456 -53.0182 -26.3306
-33.8109 -52.4962 -26.272
-33.1798 -51.7244 -26.2885
-32.1683 -51.7759 -26.2587
-30.5713 -52.3051 -26.2826
-30.424 -61.6773 -26.0856
-31.0265 -62.5815 -26.0878
-32.2582 -61.1554 -26.1358
-31.4832 -64.228 -26.1062
-33.1023 -61.839 -26.169
-32.0552 -64.3824 -26.1395
-33.9197 -64.0884 -26.1007
-32.4379 -64.941 -26.0896
-33.3016 -65.0072 -26.0982
-33.4203 -66.2568 -26.0224
-33.9644 -65.632 -26.0563
-34.8766 -66.8522 -26.1873
-35.5297 -66.4553 -26.2075
-35.212 -69.991 -26.0207
-36.4121 -67.9622 -26.152
-30.283 -68.7414 -25.967
-30.2342 -67.8519 -25.9785
-30.4721 -66.7052 -26.0423
-31.6986 -67.727 -25.9598
-32.1381 -65.8452 -26.0562
-32.6905 -66.8596 -26.0142
-32.5027 -68.0578 -26.0444
-33.6081 -67.4697 -26.134
-32.885 -68.5356 -26.0783
-33.2149 -69.1604 -26.0647
-32.5527 -69.3294 -26.0885
-30.0975 -64.3824 -26.0505
-30.7534 -63.9781 -26.098
-35.1307 -61.7508 -26.1755
-36.0044 -63.1181 -26.13
-35.2337 -64.6617 -26.0914
-34.3981 -64.0443 -26.0901
-29.9941 -65.3233 -26.0688
-34.0417 -68.0872 -26.118
-34.0777 -69.4838 -26.0337
-31.7441 -69.0134 -26.0469
-31.8274 -70.0351 -26.0793
-30.8408 -69.9175 -26.0635
-35.7384 -65.5217 -26.1585
-18.6208 8.04442 -26.3455
-17.8766 8.29435 -26.3426
-16.7286 9.24259 -26.293
-15.1663 9.67629 -26.2767
-13.3314 8.7942 -26.2447
-20.3983 6.65513 -26.4568
-21.1313 5.3173 -26.4084
-19.3227 6.64043 -26.4041
-27.3474 1.88451 -26.5429
-25.3987 3.3032 -26.5097
-30.6921 -2.95963 -26.5935
-31.1009 -2.01138 -26.6133
-31.8374 -2.03344 -26.6239
-31.57 -0.989632 -26.5889
-32.1457 -1.29836 -26.5894
-30.5578 -1.71 -26.5772
-30.7461 -1.01168 -26.5629
-31.1305 0.22324 -26.5923
-34.17 -0.555938 -26.6627
-34.9055 -1.23956 -26.6257
-35.6355 -0.482431 -26.6418
-35.5705 -1.67325 -26.6291
-35.6863 -3.41538 -26.6678
