VERSION .7
FIELDS x y z
SIZE 4 4 4
TYPE F F F
COUNT 1 1 1
WIDTH 1900
HEIGHT 1
VIEWPOINT 0 0 0 1 0 0 0
POINTS 1900
DATA ascii
-3.75399 6.37238 -19.4696
-4.50566 6.37895 -19.4833
-4.66154 6.10306 -19.5094
-7.81453 4.78931 -19.5958
-5.83895 6.52346 -19.5396
-8.04505 5.42648 -19.6246
-8.1631 6.08664 -19.5849
-7.80705 6.21801 -19.5649
-6.66404 6.32311 -19.5278
-5.11169 6.27056 -19.5385
2.86836 8.04412 -19.294
2.13659 8.11309 -19.2773
1.7048 8.42182 -19.2846
-0.563736 8.57947 -19.3848
0.17332 8.69114 -19.34
0.966986 8.52692 -19.2962
0.189696 7.72882 -19.3506
-0.0489545 7.9653 -19.3711
-0.728073 7.25916 -19.383
28.6803 10.8654 -18.1442
28.2131 10.3268 -18.1985
26.4898 10.1527 -18.3192
27.1529 10.8358 -18.2728
31.7497 12.5306 -18.0564
32.0493 12.097 -17.9167
31.5846 12.1693 -18.0964
32.1109 11.2562 -17.8367
32.3182 11.5781 -17.6421
31.1442 12.5995 -18.1569
30.9858 11.9657 -18.1327
30.9779 11.3646 -18.1124
30.256 11.831 -18.0835
28.5447 11.3942 -18.1535
29.3453 11.7752 -18.1088
22.6229 10.6355 -18.5037
20.197 9.30532 -18.595
20.6218 9.97205 -18.5571
21.6668 10.4483 -18.519
15.867 9.30204 -18.8064
20.4012 10.3399 -18.5737
19.7066 9.86038 -18.6021
18.0169 10.1625 -18.7714
19.2394 10.6355 -18.6564
18.4803 10.8982 -18.7326
17.7427 10.6092 -18.7322
17.324 10.1461 -18.7418
13.3505 9.59434 -18.9033
16.9627 9.53522 -18.7483
24.5137 10.0673 -18.3993
23.1021 10.6125 -18.4738
23.6541 10.6224 -18.4242
24.5742 10.5205 -18.379
25.1707 10.8391 -18.318
25.4228 10.0213 -18.3134
32.2138 12.2021 -17.7624
32.1652 12.5174 -17.8131
32.0827 13.1086 -17.8647
32.4198 13.1316 -17.4143
32.2422 13.4863 -17.6789
32.506 13.46 -16.8652
32.6341 11.6438 -10.833
32.6337 11.8967 -10.4439
32.6654 10.537 -9.22299
32.6411 11.4632 -11.6084
32.6209 12.0149 -12.8777
32.5721 11.9033 -13.6852
32.5368 13.4633 -14.3584
32.631 12.0839 -12.0771
32.5417 13.5126 -14.1646
32.5764 13.1415 -13.6023
32.627 13.0955 -12.7367
32.6288 12.4222 -12.4534
32.5148 13.9199 -15.429
32.5119 13.667 -14.877
32.4954 13.8509 -16.8066
32.4812 14.8165 -16.5638
32.4994 14.5964 -15.6964
32.6968 9.99504 -5.56607
32.7323 10.2545 -4.62406
32.7071 9.77498 -7.61444
32.7236 9.98847 -7.17461
32.6636 10.6486 -6.53874
32.6921 10.5731 -7.38188
32.6955 10.6256 -8.46115
32.6807 10.3563 -7.65947
32.7176 9.81768 -3.96658
32.6433 9.49253 -1.46588
32.6567 9.86038 -2.41435
32.6947 9.62062 -3.2692
32.6895 12.3237 -8.78382
12.7463 8.80281 -18.863
14.6703 9.31846 -18.8687
15.2402 9.22978 -18.8271
13.2317 8.89149 -18.8304
14.3915 8.96046 -18.8927
14.1022 9.74871 -18.8897
6.54163 8.63531 -19.1579
7.08983 8.34957 -19.1297
6.83623 8.89477 -19.1744
7.73069 9.21336 -19.1324
7.48105 9.46954 -19.1498
5.9521 8.76011 -19.1803
5.74863 8.2806 -19.1657
12.2446 8.83565 -18.8789
11.9339 8.41854 -18.9464
11.8717 9.16081 -18.9497
11.7686 9.81111 -18.9608
8.41521 9.65346 -19.0531
8.86392 10.3563 -19.1016
9.47202 10.2808 -19.083
10.5182 9.95562 -19.0543
11.0602 9.96219 -19.0228
-2.45595 -48.5587 -18.1147
-6.18936 -48.2927 -18.2907
-4.52859 -48.5686 -18.1536
-3.92444 -48.3091 -18.1624
-4.94344 -48.9791 -18.1418
-7.76275 -47.3599 -18.4827
-8.11484 -46.3976 -18.4753
-7.4897 -45.6061 -18.4691
-8.28754 -45.8426 -18.5146
-7.94556 -45.2382 -18.5086
-7.22837 -48.5128 -18.3064
-8.06612 -47.9741 -18.3811
-8.11727 -44.8244 -18.5317
-8.4679 -48.1318 -18.3715
-9.28608 -48.03 -18.4337
-8.67391 -47.6588 -18.4568
-9.12012 -47.4683 -18.5337
-8.39284 -47.2056 -18.495
-8.86409 -46.7885 -18.5077
-8.5451 -44.7817 -18.5492
-9.70614 -44.9919 -18.6277
-10.1072 -44.5649 -18.6889
-10.3531 -44.67 -18.7283
-10.5942 -44.9558 -18.736
-11.2644 -45.1266 -18.7835
-10.9947 -45.7605 -18.7298
-11.5648 -45.5437 -18.7833
-12.2256 -46.4962 -18.6667
-12.402 -45.1561 -18.7906
-11.5961 -46.6374 -18.6467
-11.8531 -47.4913 -18.5763
-12.1954 -46.7786 -18.6378
-12.2447 -47.8986 -18.5426
-10.4304 -45.5995 -18.6551
-10.5749 -45.9707 -18.6604
-10.9291 -46.6637 -18.6539
-9.86036 -46.749 -18.6016
-9.97908 -47.3961 -18.5978
-10.0557 -48.0267 -18.4828
-10.7961 -47.4913 -18.5627
-11.1393 -47.8165 -18.5218
-9.23817 -46.6472 -18.5315
-9.06593 -45.9542 -18.5912
-9.03362 -45.2777 -18.6365
-9.6614 -46.0626 -18.5984
-9.84707 -45.6685 -18.6295
-21.0225 -31.3585 -19.4589
-20.4667 -31.6574 -19.4689
-21.5397 -31.9135 -19.4539
-22.2022 -32.6263 -19.427
-19.6462 -35.037 -19.2812
-19.6484 -35.5362 -19.3256
-19.0868 -35.3293 -19.2817
-19.808 -32.9481 -19.4363
-20.1358 -32.1664 -19.4598
-18.7734 -33.2503 -19.4028
-22.4822 -31.8479 -19.4792
-19.8739 -31.6344 -19.4925
-19.0487 -32.1205 -19.4608
-22.0993 -33.4769 -19.4654
-18.3153 -35.5001 -19.2753
-20.4192 -34.991 -19.2903
-21.3841 -35.1585 -19.4023
-21.1238 -34.4261 -19.406
-21.7146 -34.8268 -19.425
-21.7313 -33.9991 -19.4323
-22.3461 -34.4721 -19.4399
-22.5115 -33.247 -19.4919
-21.9422 -33.0795 -19.4427
-21.4916 -32.7412 -19.4271
-21.1756 -33.4572 -19.4107
-20.5194 -33.5393 -19.4029
-20.6931 -34.009 -19.3833
-20.6148 -34.1798 -19.3711
-20.0371 -34.5903 -19.3183
-19.9376 -33.7659 -19.3858
-19.7271 -34.2947 -19.3617
-19.6957 -34.032 -19.3797
-18.88 -34.5181 -19.3363
-18.5149 -34.2553 -19.3519
-18.5581 -31.884 -19.4853
-18.7474 -31.5982 -19.4883
-18.2046 -35.9993 -19.3024
-17.6879 -36.4131 -19.2622
-18.3082 -36.4361 -19.3058
-17.7258 -36.9255 -19.2213
-17.569 -37.2605 -19.2165
-18.1789 -39.0111 -19.2616
-18.0078 -37.6743 -19.2309
-17.9323 -38.3838 -19.2179
-17.7474 -39.9898 -19.1911
-17.8923 -39.2935 -19.2579
-12.7579 -44.7226 -18.8046
-13.7484 -44.0821 -18.9197
-13.4947 -44.9262 -18.8375
-14.4762 -44.1248 -18.9132
-14.3405 -44.8178 -18.8603
-15.1075 -44.161 -18.9161
-15.0131 -45.2448 -18.8575
-15.9313 -45.6948 -18.8386
-15.6463 -46.5257 -18.8119
-16.2663 -46.4732 -18.8376
-16.4292 -46.7031 -18.8331
-17.3821 -46.4305 -18.9004
-17.1898 -46.8771 -18.8803
-17.1781 -47.6293 -18.8476
-12.5266 -45.8426 -18.7339
-12.8248 -46.7031 -18.6893
-13.0086 -45.5306 -18.769
-13.6019 -46.8771 -18.7318
-13.9675 -46.2465 -18.7836
-14.3263 -46.0298 -18.8028
-13.0521 -44.9788 -18.8017
-13.5351 -47.603 -18.6653
-14.1581 -47.961 -18.6706
-15.841 -47.7803 -18.7322
-17.4308 -45.6554 -18.9196
-16.7485 -44.473 -18.9597
-16.4803 -44.9065 -18.9086
-15.7226 -44.5157 -18.9042
-16.3574 -44.046 -18.9482
-14.7752 -44.1183 -18.9104
-16.7393 -46.0922 -18.8707
-17.8796 -40.5843 -19.1338
-17.717 -42.1575 -19.1187
-18.2623 -41.5105 -19.1042
-18.035 -41.2379 -19.0985
-18.366 -39.9832 -19.2202
-17.5494 -42.6764 -19.1666
-17.6897 -44.4434 -19.0259
-17.6925 -43.7701 -19.0626
27.8403 -10.1382 20.8015
27.3081 -10.9395 20.8138
27.8822 -11.7902 20.8631
27.2531 -13.0875 20.9737
27.6618 -12.1909 20.896
27.4625 -11.915 20.8748
27.7986 -14.4604 20.9336
27.6953 -18.7038 21.0231
27.6333 -17.1339 20.9943
27.7705 -18.2637 20.9806
27.8874 -16.6576 20.9938
27.6622 -16.3292 21.0266
27.538 -14.9563 20.9569
27.0806 -15.4293 21.0214
27.6726 -19.006 21.0311
27.6528 -19.4099 21.0758
27.7562 -21.5349 21.0673
27.2689 -20.3985 21.1959
27.4754 -20.6941 21.155
26.9039 -22.3363 21.174
27.4537 -22.2903 21.1041
27.8181 -23.1081 21.0902
27.6507 -8.73902 20.7805
27.7296 -7.94091 20.7535
27.2821 -6.64687 20.7551
27.1716 -6.45309 20.7507
27.5443 -7.2709 20.7403
27.7181 -9.20868 20.8019
27.4951 -23.9522 21.1419
27.8173 -26.675 21.161
27.8389 -26.0706 21.0933
27.4191 -25.5583 21.1365
27.1979 -25.9491 21.1651
27.3704 -27.4501 21.1925
27.1326 -25.0164 21.1447
27.0772 -24.7109 21.1741
31.5248 1.19621 17.3406
31.5343 2.44099 17.2223
31.495 2.3129 17.8928
31.3904 1.44582 18.7306
30.7593 -1.87468 20.2985
28.3244 -1.19153 20.4996
28.8427 -1.69732 20.5168
28.8239 -0.514948 20.4711
29.2063 -1.78272 20.4986
29.9076 -1.6809 20.4786
30.9837 0.118935 20.0737
30.7219 -0.252199 20.3692
28.6225 0.0368262 20.4866
29.3969 -0.120824 20.4982
30.164 -0.787551 20.485
30.011 -0.199649 20.5392
30.4067 -0.29818 20.5013
30.5574 -0.74157 20.4342
30.6572 -1.38531 20.3411
30.8826 -1.49698 20.2077
30.3358 -1.2605 20.4389
30.4011 -1.67762 20.4218
31.3102 2.31946 19.2115
31.2328 1.87936 19.5415
31.0561 1.50494 19.9194
30.9438 0.644435 20.0821
31.5646 1.88921 17.0319
31.6654 2.13225 16.3228
31.7231 2.03372 15.7492
27.7184 -5.62871 20.7072
27.5488 -1.7433 20.5724
27.732 -1.29334 20.5471
27.6497 -2.33777 20.6141
27.2681 -3.62525 20.7036
27.2612 -2.89612 20.671
27.8054 -4.96199 20.6658
27.3637 -4.3084 20.6838
26.8367 -3.93726 20.7201
32.2906 5.41006 8.31539
32.2996 6.44792 8.09207
32.1708 6.0735 9.63066
32.1485 5.2754 9.95689
32.1154 5.26883 10.5175
32.0959 4.92397 10.918
31.8269 3.04859 13.8303
31.8947 3.50184 13.2057
31.8 2.42128 14.2059
31.9576 3.46243 12.575
32.0008 3.37703 12.1512
31.6762 2.68403 15.9758
31.7414 3.09458 15.0636
32.0586 5.06191 11.5459
31.9786 3.86312 12.4834
32.0063 4.3295 12.1871
27.6463 -28.5602 21.0987
27.6359 -29.4733 21.1001
27.2474 -30.2648 21.1886
27.4973 -27.8836 21.1487
27.5012 -30.856 21.1702
31.7486 -35.7037 20.7609
31.8624 -35.9533 20.6383
26.8467 -35.014 21.1828
27.8033 -35.2406 21.147
30.196 -35.615 21.054
30.6439 -37.0864 21.1138
31.1303 -35.7924 21.0501
30.9271 -36.0026 21.0765
28.7305 -36.0814 21.1676
28.0824 -36.1668 21.1514
27.5902 -35.8778 21.1673
27.8033 -35.2406 21.147
27.5166 -34.0681 21.1808
26.8467 -35.014 21.1828
27.2927 -33.3225 21.1726
27.1115 -32.4095 21.1613
27.2614 -31.549 21.165
31.469 -35.6577 20.9519
32.583 8.11638 2.12561
32.5292 8.84879 2.38878
32.5747 8.94076 1.53326
32.6015 8.75355 0.969936
32.5155 7.55804 3.06249
32.5358 7.17376 3.82409
32.467 6.94386 5.20889
32.4735 6.47748 4.8541
32.5051 7.47921 4.77298
32.5271 7.1869 4.28462
32.34 7.00626 7.40622
32.4433 7.31171 5.34482
32.3912 7.55147 6.11057
32.3593 7.34784 6.69937
32.816 -46.1743 4.70226
32.8031 -46.644 4.97327
32.7667 -46.0298 5.31706
32.7272 -46.6045 5.90652
32.7217 -45.9608 5.90809
32.6958 -46.7392 6.63185
32.7156 -45.8163 6.50606
32.6613 -47.2548 7.34003
32.7309 -45.6422 6.84859
32.7313 -46.5947 7.79911
32.7611 -46.1217 7.72903
32.7487 -46.2465 8.28674
32.7218 -45.6882 8.32447
32.8029 -45.363 4.99886
32.7489 -45.3138 5.51287
32.7468 -45.2481 6.40103
32.7371 -45.2251 7.62775
32.7393 -44.8573 7.37184
32.7526 -45.0675 5.52832
32.7588 -47.7311 5.04298
32.6628 -47.4749 6.52863
32.6711 -47.5406 9.16792
32.6715 -47.5242 8.44693
32.7304 -46.818 8.79056
32.0917 -37.5003 20.2695
32.0471 -38.5545 20.4714
31.9803 -37.3656 20.5551
31.8895 -38.1276 20.7252
31.8237 -37.474 20.7875
31.6008 -37.9404 20.9833
31.7024 -37.0207 20.8732
31.4056 -37.0602 21.033
31.4453 -36.8762 21.0127
31.0082 -36.7317 21.0939
30.9495 -37.8254 21.1317
31.237 -37.6119 21.1022
31.4854 -38.8863 21.0538
31.7775 -38.7976 20.8683
32.006 -39.2738 20.5642
30.0481 -38.9815 21.1263
30.244 -38.4724 21.1124
29.9557 -37.901 21.1316
31.5152 -36.2588 20.9462
31.7939 -36.4394 20.745
31.9236 -36.6135 20.5878
32.0255 -36.6036 20.3514
32.087 -36.6956 20.1311
29.7751 -39.6088 21.1502
28.0056 -37.5758 21.2229
28.107 -37.0306 21.2135
28.6257 -37.7006 21.2546
28.4975 -37.0175 21.2266
28.6002 -36.8894 21.2198
29.2541 -37.0207 21.1713
30.1345 -37.6973 21.1301
29.3716 -37.5922 21.1768
29.4348 -37.9502 21.1587
28.8553 -37.9995 21.2296
29.5573 -38.5545 21.1388
28.7837 -38.4068 21.2065
29.2549 -39.1392 21.144
28.4122 -38.929 21.1759
28.203 -39.5497 21.174
27.9232 -38.6761 21.1713
28.8167 -36.6759 21.197
29.382 -39.6844 21.1438
30.1816 -39.6712 21.1347
30.85 -39.3494 21.1676
31.2996 -39.507 21.1294
31.6076 -39.5727 21.0159
31.876 -39.4512 20.7786
31.4677 -43.5796 21.2931
31.3339 -42.8932 21.2983
31.6366 -42.9457 21.1608
31.4785 -42.0754 21.203
31.7711 -42.1838 21.0038
31.6562 -41.4087 21.0666
31.8381 -40.7387 20.8945
31.8911 -42.5024 20.8839
31.7676 -43.3891 21.0754
32.0275 -41.4448 20.6407
31.3341 -41.2346 21.1976
31.0953 -41.5039 21.2463
31.1844 -42.1082 21.2809
28.4016 -39.8584 21.1969
28.072 -41.0113 21.3346
28.1224 -40.6795 21.2992
28.8738 -41.1656 21.2633
29.0994 -40.4989 21.2109
29.3407 -41.1262 21.2246
29.7117 -41.1393 21.2313
29.2036 -42.0557 21.2443
30.0659 -41.8258 21.2248
29.6928 -42.7257 21.2548
30.3834 -42.1312 21.2558
30.0717 -43.1395 21.2787
30.8608 -41.6189 21.2652
30.7084 -42.9523 21.3492
31.1084 -43.0607 21.3567
30.8068 -43.7997 21.4038
30.9561 -43.8522 21.4092
32.0796 -43.6585 20.4756
32.119 -43.2216 20.3623
32.084 -42.903 20.5269
28.3302 -42.5385 21.2924
28.7886 -43.1855 21.2501
28.0267 -43.2118 21.313
28.9646 -43.3136 21.2434
30.0329 -43.6158 21.3093
27.9342 -41.4776 21.3559
28.2362 -41.563 21.3267
28.1156 -42.6239 21.3041
29.626 -40.3084 21.1942
30.2361 -40.7879 21.2078
30.8074 -39.8749 21.1768
31.1471 -39.8913 21.1699
31.4322 -40.2263 21.1276
31.7267 -40.1146 20.9549
31.9243 -40.0062 20.7363
32.0307 -39.934 20.5572
31.965 -40.9127 20.7381
32.1015 -40.4595 20.3883
32.0879 -41.3955 20.5108
31.992 -42.683 20.738
32.1011 -44.4795 20.4395
32.1313 -44.6241 20.2807
32.1634 -45.0149 20.0793
32.521 -48.1975 10.9363
32.5383 -48.2336 10.3037
32.4796 -48.7033 12.2382
32.4202 -48.8576 13.0541
32.395 -48.2829 13.4067
32.3654 -48.2402 15.0101
32.398 -48.1548 14.3505
32.5693 -48.342 9.52288
32.506 -48.6967 10.2047
32.3195 -48.2533 16.6241
32.2617 -48.2697 17.342
32.2445 -48.3551 18.2374
32.2273 -48.3157 19.208
32.2039 -46.644 19.9506
32.1442 -46.1217 20.2725
32.3009 -48.8116 16.2585
32.3352 -48.6441 15.4257
32.1288 -45.3269 20.2994
32.1069 -45.7802 20.4558
32.1524 -47.5045 20.4143
32.1661 -48.7886 20.4104
32.2033 -48.4438 19.9583
32.6425 8.57291 -0.950544
32.6578 8.97688 0.130898
32.6685 8.75026 -0.297158
32.6669 9.35787 -0.56853
21.7148 -52.362 -14.4854
20.9254 -52.3719 -14.3771
18.1013 -52.3588 -14.8999
17.8532 -52.385 -14.6142
18.3694 -52.431 -14.1534
19.5439 -52.4442 -13.6838
20.5349 -52.4442 -13.6138
17.0908 -52.3818 -14.6444
27.707 -52.4343 -12.0618
27.0865 -52.4639 -12.562
26.9035 -52.4146 -13.1194
28.2851 -52.385 -12.1353
25.2455 -52.4409 -13.3639
25.8838 -52.4573 -13.0971
23.9548 -52.523 -13.2477
23.1029 -52.3883 -14.2314
24.8535 -52.4901 -13.2415
28.7873 -52.3653 -12.3523
29.9257 -52.3226 -12.003
30.8437 -52.3456 -11.9587
31.0554 -52.4047 -11.3118
31.5219 -52.3456 -11.3309
31.6533 -52.2701 -12.0247
31.8266 -52.1683 -11.2482
32.066 -51.9482 -11.8557
32.718 -51.2191 -11.9307
32.8861 -50.8709 -11.8796
32.9324 -50.3487 -11.1344
32.066 -51.9482 -11.8557
32.8887 -50.6213 -9.95204
32.8874 -50.6673 -10.7686
31.4901 -52.3489 -7.39312
32.4566 -51.2913 -6.8596
31.9974 -51.6822 -7.86083
32.5001 -51.2749 -8.41738
31.8974 -51.8267 -9.26349
32.4202 -51.3767 -9.11391
32.2635 -51.5344 -9.70144
32.0868 -51.7446 -10.5881
32.0333 -51.7709 -9.86248
31.8733 -52.0369 -10.1097
31.6545 -52.2865 -9.24822
32.6131 -51.2519 -10.8105
32.7205 -51.0549 -9.19515
32.6511 -51.0746 -7.65252
31.6104 -52.3128 -8.31503
31.7665 -52.2274 -10.2864
31.6662 -52.3292 -10.6242
31.6545 -52.2865 -9.24822
31.7306 -51.8563 -6.97671
31.7192 -51.9613 -7.7048
31.7794 -51.9285 -8.44135
31.6104 -52.3128 -8.31503
31.739 -52.027 -9.08912
32.7906 -50.9793 -10.5142
32.0379 -51.9154 -11.2139
31.7665 -52.2274 -10.2864
32.0379 -51.9154 -11.2139
32.3054 -51.5935 -11.2362
31.4901 -52.3489 -7.39312
32.8143 -50.9005 -9.64844
32.7479 -50.9268 -8.38901
32.8309 -50.6345 -8.4953
32.7744 -50.8053 -7.29876
32.8099 -50.5983 -7.7279
32.8311 -50.4177 -6.92448
32.8586 -50.0236 -7.04495
32.7106 -49.1565 1.3353
32.5661 -50.3454 2.70114
32.6531 -49.4291 2.29632
32.7482 -49.2485 -0.426558
32.6054 -50.6148 0.471754
32.6691 -49.6853 1.10986
32.5849 -50.4801 1.78267
32.532 -50.5622 2.83852
32.4854 -50.7429 2.59503
32.4593 -50.8874 1.60377
32.3309 -51.0582 1.90175
32.2611 -51.1271 1.56724
31.9234 -51.3899 1.53151
32.3213 -51.1041 0.943324
32.0373 -51.3275 0.450738
32.2614 -51.2027 -0.236498
31.7428 -51.6198 -1.12317
32.2526 -51.2618 -1.19064
32.505 -50.8906 0.197061
32.4676 -50.9498 0.230253
32.4917 -50.976 -0.814367
32.6701 -50.5622 -1.2843
31.0355 -52.2405 -0.83111
31.3794 -51.7873 -0.535829
31.3639 -51.7479 0.224022
32.2675 -51.0483 3.76706
32.3388 -50.976 3.32772
32.0796 -51.2224 3.17193
32.2502 -51.0943 2.6156
31.9917 -51.3209 2.27041
32.4321 -50.8381 3.00069
31.0064 -52.211 -0.575006
31.0109 -52.0533 0.146087
31.0193 -52.2569 0.299879
31.0627 -52.0172 0.370077
30.8671 -52.3029 1.06571
31.1731 -51.8858 1.06993
30.8544 -52.2011 1.57392
31.1545 -51.8858 1.44319
30.9253 -52.0533 2.11835
31.4913 -51.6362 1.98829
31.2334 -51.7544 2.53048
31.3668 -51.6592 2.79576
30.9832 -51.8563 3.37236
31.5454 -51.5639 3.70892
31.7835 -51.4194 2.99217
30.7063 -52.2931 3.19309
30.9395 -51.9811 2.65795
30.9051 -52.0862 2.14515
30.6562 -52.1978 3.69098
30.6562 -52.1978 3.69098
32.6773 -50.3159 -0.970989
32.6887 -50.0466 -0.286409
31.4501 -52.385 -6.6518
31.3747 -52.5296 -6.28338
31.3776 -52.4146 -5.75856
31.3699 -52.5657 -5.50107
31.36 -52.4573 -4.88699
31.3001 -52.5 -4.17006
31.3402 -52.3949 -3.60933
31.2536 -52.5657 -3.3248
31.3298 -52.5 -2.90652
31.2637 -52.4934 -2.04213
31.1782 -52.3982 -1.55365
31.2932 -52.7102 -2.23678
12.3003 -50.779 -17.2939
12.2945 -51.2881 -17.2727
12.741 -51.9318 -16.846
14.3045 -52.4376 -14.6943
13.0355 -52.408 -15.1595
11.905 -52.3916 -15.4164
12.4236 -52.1289 -16.5331
11.4178 -52.2372 -16.246
11.943 -52.2996 -15.9334
11.9097 -51.853 -17.0187
11.9841 -51.7117 -17.1405
12.1933 -51.5574 -17.2198
11.9841 -51.7117 -17.1405
11.6379 -50.9169 -17.2985
10.788 -51.4293 -17.2856
10.6853 -50.9793 -17.3103
9.88261 -51.4523 -17.356
10.4112 -50.8217 -17.3402
9.53337 -50.9432 -17.3809
9.22316 -51.3505 -17.387
11.4538 -50.063 -17.3961
9.79749 -52.2208 -16.4742
10.0015 -52.3259 -16.0143
8.78884 -52.2701 -16.3423
10.7548 -51.7906 -17.1004
10.4617 -52.0435 -16.8185
9.47051 -52.1059 -16.7878
9.11779 -51.8563 -17.1857
8.78502 -52.1223 -16.7708
9.9388 -51.6789 -17.2684
10.5064 -51.6789 -17.2022
8.05874 -51.6526 -17.3503
8.62276 -51.6329 -17.3627
9.11779 -51.8563 -17.1857
9.9388 -51.6789 -17.2684
10.5064 -51.6789 -17.2022
10.7548 -51.7906 -17.1004
9.00348 -52.1945 -16.5733
7.06392 -51.6461 -17.3667
5.37097 -51.8989 -17.3398
7.04063 -51.7938 -17.2819
1.51634 -52.0533 -17.3866
3.14105 -52.0205 -17.2573
5.37097 -51.8989 -17.3398
-2.77501 -51.2421 -17.8914
-2.489 -50.4013 -17.9611
-2.37288 -51.8563 -17.7329
-2.41037 -51.7873 -17.7808
-3.07917 -51.5902 -17.8691
0.364821 -52.2668 -17.1014
-0.759099 -52.1124 -17.3376
-2.43233 -51.9351 -17.6619
-2.37288 -51.8563 -17.7329
-2.44538 -49.3963 -18.0291
-2.45141 -49.774 -17.9823
32.6227 -49.3043 3.88941
32.5438 -50.3586 4.17925
32.6301 -49.3437 4.84694
32.4094 -50.4308 9.05643
32.2686 -50.7888 9.17322
32.4123 -50.2896 8.05992
32.4144 -50.3914 7.50366
32.5449 -49.4258 6.53678
32.4406 -50.4801 6.98554
32.3357 -50.7855 6.61603
32.4473 -50.6837 5.22803
32.3535 -50.8578 5.23678
32.4562 -50.7199 4.18474
31.6198 -51.5114 4.73893
31.9604 -51.2716 4.77986
32.046 -51.1238 6.37586
32.2121 -51.045 5.16755
32.1059 -51.1764 4.25022
30.8234 -52.3128 9.07825
30.8944 -51.9482 8.99641
31.2494 -51.6493 9.10681
32.0917 -51.0352 9.01948
31.7999 -51.2815 9.1854
31.8989 -51.2224 8.0488
31.5843 -51.4391 8.54862
31.4779 -51.4983 7.65689
31.1292 -51.6953 8.18145
31.1525 -51.7117 6.79466
30.9333 -51.8431 7.45045
30.8227 -51.9351 7.03302
30.6578 -52.2372 7.59972
30.6782 -52.3489 7.0277
30.9717 -51.83 8.73554
30.8132 -52.0073 8.71622
30.6887 -52.0993 8.14656
30.6768 -52.0927 4.23927
30.8943 -51.9449 4.90853
30.7515 -52.1453 5.39984
31.2832 -51.7479 5.43275
30.9891 -51.9022 5.9928
31.5725 -51.4818 6.20618
30.7771 -51.9942 6.62402
31.0748 -51.7774 4.32686
31.7111 -51.3734 6.63967
31.8754 -51.2388 7.4518
32.1072 -51.045 7.36459
32.2613 -50.8118 8.25921
32.3576 -50.5983 8.01845
30.6728 -52.2602 5.40129
30.732 -52.1551 5.94457
30.6728 -52.2602 5.40129
32.5867 -48.8051 6.29806
32.5755 -48.7755 6.62713
32.5849 -49.9283 4.45588
32.4902 -50.5392 5.34344
32.5219 -50.3257 5.48757
32.4605 -50.4341 6.38365
32.5432 -49.9119 5.85244
32.5914 -49.1565 6.02941
32.6791 -48.5784 5.54781
32.6491 -48.3485 6.01293
32.599 -48.342 6.81117
32.6092 -48.273 7.39845
32.5482 -48.9397 7.42338
32.5982 -48.6836 8.10295
32.5211 -49.2025 8.4884
32.6047 -48.631 8.49305
32.5955 -48.5259 9.03633
-22.7518 -17.6265 -19.7897
-23.1265 -18.6414 -19.7743
-23.0387 -19.0651 -19.7678
-22.964 -16.8022 -19.7967
-23.1638 -16.1814 -19.8102
-22.7127 -15.5344 -19.8023
-22.8812 -14.444 -19.8398
-22.7457 -15.183 -19.7929
-22.6526 -11.5866 -19.8751
-22.6185 -12.5555 -19.8623
-23.0397 -13.3339 -19.8591
-23.3658 -10.5651 -19.8997
-22.8892 -10.1447 -19.9006
-23.1432 -9.11344 -19.9257
-23.6262 -9.35648 -19.9395
-22.9899 -7.71429 -19.9304
-22.8723 -8.73245 -19.919
-23.3249 -7.4614 -19.9294
-22.8127 -6.9359 -19.9465
-22.7614 -6.35128 -19.9341
-22.8016 -1.44114 -19.9437
-22.7564 -2.70234 -19.922
-23.1965 -1.98306 -19.933
-22.6551 -3.03078 -19.9374
-23.1754 -6.52535 -19.9496
-23.3718 -5.72725 -19.9656
-23.2998 -4.69924 -19.9561
-22.5906 -4.33796 -19.9964
-22.7997 -3.49716 -19.9487
-23.0739 -20.9405 -19.7653
-22.7232 -21.3674 -19.7002
-22.8413 -19.9617 -19.7356
-22.6326 -19.8927 -19.7321
-23.0967 -22.1721 -19.6942
-22.9355 -21.7747 -19.6757
-22.8356 -22.783 -19.6877
-23.1262 -23.3512 -19.6813
-22.5791 -23.7749 -19.7128
-23.096 -24.2938 -19.6899
-22.7083 -24.8357 -19.676
-22.9665 -25.6075 -19.6338
-22.9469 -26.2513 -19.6213
-22.855 -26.9344 -19.619
-22.8404 -29.7984 -19.6127
-22.6266 -29.5422 -19.6287
-23.0351 -29.2007 -19.6457
-23.7033 -30.8034 -19.554
-23.6511 -31.2632 -19.5314
-23.6258 -30.0579 -19.5837
-23.48 -27.0363 -19.6193
-23.1459 -27.6077 -19.5871
-22.708 -28.0708 -19.5514
-22.5851 -28.7704 -19.5534
-11.9861 4.01091 -19.7128
-11.502 4.45759 -19.6768
-11.106 5.29182 -19.6652
-11.7512 5.38706 -19.6702
-10.1944 5.21299 -19.6296
-9.59928 5.11118 -19.6404
-12.7284 3.87297 -19.7816
-13.5997 3.63649 -19.7642
-16.5701 1.61332 -19.8366
-15.1301 1.85308 -19.7973
-15.9153 2.39172 -19.8314
-21.7998 0.857917 -19.9203
-22.3132 0.565608 -19.9374
-22.6196 0.0860895 -19.922
-22.8169 -0.626619 -19.9483
-20.8143 1.23562 -19.9239
-20.4649 0.736395 -19.9245
-19.3637 1.67244 -19.874
-18.275 1.93191 -19.8605
-17.128 2.50667 -19.8651
-17.409 2.31618 -19.8644
-14.7405 2.53952 -19.7944
-15.086 2.39172 -19.8038
-14.3907 3.86312 -19.7771
-14.8915 3.5938 -19.7828
3.89748 7.88976 -19.2529
5.04467 9.13782 -19.1765
5.03148 8.45138 -19.1802
5.65156 9.00644 -19.1861
4.30565 9.13125 -19.1787
3.37049 8.46124 -19.2917
4.66148 9.08198 -19.1707
-1.57967 8.83894 -19.4221
-2.55009 8.48423 -19.4259
-3.85886 8.55977 -19.4637
-5.45487 8.31344 -19.5351
-4.82499 6.69425 -19.4972
-5.49334 7.15406 -19.5242
-6.25589 6.78292 -19.5287
-7.40396 6.91758 -19.5778
-8.894 5.49873 -19.633
-8.34173 7.26573 -19.6089
-9.17266 6.1983 -19.6135
-8.53168 7.33798 -19.6103
3.02543 8.66487 -19.3148
2.65488 9.036 -19.2976
2.3439 8.76011 -19.3079
1.02249 9.23635 -19.3196
1.82824 9.67317 -19.3319
2.13086 9.66003 -19.3252
-1.00971 9.34802 -19.4122
-0.288257 9.47611 -19.3523
-0.124468 10.0837 -19.3465
26.0772 10.8128 -18.2945
27.0879 11.6405 -18.2812
27.2036 11.0986 -18.2587
31.5306 13.5422 -18.102
31.8621 13.2991 -17.9939
30.3878 12.8951 -18.1271
30.4748 12.3335 -18.0934
31.0455 13.3911 -18.1542
29.4639 12.235 -18.1186
29.9509 12.5437 -18.115
28.5381 12.2547 -18.1742
27.8571 11.6832 -18.2125
27.9987 12.1003 -18.2124
22.7609 10.9672 -18.5446
22.2939 11.0329 -18.5554
21.8307 11.2464 -18.5448
21.6433 11.3318 -18.5529
21.2723 10.8785 -18.5596
16.1313 9.84067 -18.8143
15.3645 10.0509 -18.8641
20.2267 11.1117 -18.5959
18.5007 11.6865 -18.7909
17.3793 11.23 -18.7771
17.9193 11.542 -18.7841
17.0305 10.6716 -18.7406
16.984 10.2775 -18.7529
12.7419 9.56807 -18.9143
13.8715 10.3005 -18.8929
13.3259 10.3826 -18.9278
12.6661 10.849 -18.9767
23.0396 11.2037 -18.5265
23.578 11.1314 -18.5046
24.0236 11.2661 -18.4636
24.9371 11.3416 -18.3264
25.6057 11.9295 -18.2815
25.8286 11.2628 -18.2956
32.0827 13.1086 -17.8647
32.0151 13.5651 -17.8979
32.4598 13.3352 -17.2349
32.4266 14.3665 -17.3126
32.3362 13.887 -17.5315
32.1178 14.3862 -17.8356
32.4857 13.5816 -17.0636
32.6313 12.4583 -11.2452
32.6467 12.5371 -9.89496
32.6303 13.5257 -10.7793
32.6189 12.4222 -11.9084
32.5594 13.9494 -13.4773
32.5203 14.0644 -14.6856
32.545 13.9166 -14.2106
32.6399 13.6735 -12.826
32.6122 12.7802 -12.0101
32.6138 13.5389 -11.8889
32.5122 14.4716 -14.8591
32.4423 15.3124 -17.1338
32.4546 15.6671 -16.846
32.4739 15.4011 -15.8813
32.5104 15.1942 -15.255
32.6895 10.8621 -5.36574
32.7245 10.7275 -4.48517
32.7172 11.092 -4.87955
32.6972 11.0592 -7.43892
32.6785 11.4467 -6.47693
32.6944 10.4713 -3.61904
32.7219 11.115 -4.25316
32.6528 10.3136 -2.02878
32.6281 10.3268 -1.35193
32.6337 10.2512 -1.12824
32.6605 10.3662 -2.95008
32.6784 11.1774 -3.17745
32.6597 12.4255 -2.69755
32.6582 11.0887 -2.03632
32.6755 13.286 -8.67922
32.6516 12.9345 -9.59449
14.3165 9.34145 -18.8818
14.4107 10.1527 -18.9042
6.50282 9.00644 -19.2024
6.6843 9.56807 -19.2106
7.84568 9.93263 -19.1142
7.1561 9.83082 -19.2057
7.57933 10.3136 -19.1388
12.3119 10.1001 -18.9387
11.7331 10.7307 -19.0137
12.2149 10.7833 -18.9906
11.0768 10.6519 -19.0591
8.20975 10.2118 -19.1085
8.73552 10.9475 -19.098
9.16896 11.4369 -19.076
9.46862 10.8358 -19.0805
10.0728 10.3366 -19.0893
9.73155 10.7307 -19.091
10.6136 10.3957 -19.086
10.9366 10.3957 -19.0626
-2.45595 -48.5587 -18.1147
-3.89291 -51.9351 -17.6924
-2.56674 -52.0862 -17.4988
-4.10284 -52.0566 -17.5799
-3.19026 -51.9778 -17.6407
-3.89291 -51.9351 -17.6924
-5.74129 -52.0796 -17.6677
-6.74927 -52.2471 -17.5001
-6.01173 -51.9712 -17.8007
-5.45958 -51.876 -17.8202
-3.9657 -51.7676 -17.8188
-6.54894 -51.9318 -17.8321
-3.54816 -48.8281 -18.1317
-3.60488 -49.209 -18.099
-2.87816 -49.0744 -18.0902
-3.89638 -49.6623 -18.0278
-4.41138 -49.9612 -18.0159
-4.03246 -50.3027 -17.9919
-4.4415 -50.4932 -18.0013
-4.21932 -51.5639 -17.901
-5.09237 -50.4801 -18.0542
-5.62791 -51.4523 -17.9959
-5.58078 -50.0958 -18.098
-6.62 -50.7921 -18.0881
-6.18526 -49.8692 -18.1447
-7.18934 -49.3371 -18.2499
-6.84929 -51.5541 -18.0136
-5.96229 -51.761 -17.9275
-4.39342 -51.7709 -17.8303
-3.9657 -51.7676 -17.8188
-5.45958 -51.876 -17.8202
-6.54894 -51.9318 -17.8321
-6.01173 -51.9712 -17.8007
-4.76315 -49.5441 -18.0656
-6.04368 -49.7313 -18.1445
-6.14395 -49.1532 -18.2255
-6.77085 -48.9693 -18.2523
-4.73094 -49.9316 -18.0418
-8.31146 -49.1762 -18.278
-8.98883 -48.7262 -18.3444
-10.4047 -48.9332 -18.4207
-9.78349 -48.8609 -18.4043
-11.8627 -48.2927 -18.5015
-13.3846 -48.5489 -18.5941
-22.7585 -32.8167 -19.4409
-23.1251 -32.6164 -19.4338
-20.0479 -36.0814 -19.3783
-19.3506 -36.0946 -19.3191
-18.7635 -35.6774 -19.2779
-23.2858 -31.8906 -19.4975
-22.9313 -33.6575 -19.4861
-22.7597 -34.229 -19.4315
-20.4023 -35.6512 -19.3462
-21.078 -35.6183 -19.3605
-21.4808 -35.7366 -19.3671
-22.286 -35.6183 -19.4376
-22.8484 -34.6002 -19.4107
-23.3448 -33.5229 -19.4777
-19.4977 -36.469 -19.3176
-20.5341 -36.3179 -19.3776
-21.6631 -38.9224 -19.294
-20.4259 -39.2673 -19.2418
-20.5331 -39.2246 -19.2488
-19.4777 -38.6399 -19.2437
-20.5725 -39.0439 -19.248
-19.5787 -38.4133 -19.2539
-20.7882 -38.7089 -19.2645
-20.6683 -38.1112 -19.3153
-21.4112 -38.2195 -19.3765
-20.2663 -37.717 -19.3129
-20.986 -37.5134 -19.3147
-20.5687 -37.3163 -19.3077
-21.017 -36.8237 -19.3854
-20.3808 -36.9879 -19.3013
-19.8553 -37.0405 -19.2711
-19.4586 -36.7481 -19.2927
-18.7289 -36.8664 -19.3104
-19.4498 -37.4707 -19.3028
-19.0005 -37.6218 -19.2839
-19.8141 -37.9666 -19.3204
-20.0722 -38.0783 -19.3098
-18.484 -37.4247 -19.2496
-19.0449 -38.3936 -19.2201
-18.2874 -38.4724 -19.2277
-18.3833 -38.1079 -19.2198
-17.991 -37.1554 -19.2177
-18.5715 -39.4249 -19.2757
-19.0633 -39.3855 -19.2795
-21.3363 -39.5431 -19.2867
-21.2738 -38.7155 -19.3031
-21.8002 -38.3936 -19.3495
-21.9034 -38.1407 -19.3666
-22.1919 -37.763 -19.3909
-21.3765 -36.7153 -19.4029
-21.4864 -36.1602 -19.3715
-22.1487 -37.2966 -19.3702
-22.2676 -37.0963 -19.3783
-22.5176 -36.4033 -19.4135
-18.9641 -40.4956 -19.1456
-19.4796 -39.9603 -19.2327
-19.5463 -40.5613 -19.1431
-20.2158 -40.2591 -19.1982
-20.0305 -41.0737 -19.1475
-20.4367 -40.6861 -19.1892
-20.3339 -41.5926 -19.1209
-20.9321 -41.5368 -19.1649
-20.7608 -42.0688 -19.1657
-21.3675 -42.1772 -19.1817
-20.898 -42.6699 -19.1896
-21.3647 -42.8801 -19.1765
-20.5974 -42.7848 -19.1778
-20.2656 -42.8833 -19.1644
-19.9312 -42.5122 -19.1578
-19.3028 -42.6961 -19.1225
-18.9427 -42.0064 -19.1442
-18.7103 -42.9326 -19.164
-18.1865 -42.5385 -19.1483
-22.4497 -42.4465 -19.2181
-22.3652 -42.1542 -19.2032
-22.0097 -41.6254 -19.2131
-21.9781 -40.9291 -19.2567
-21.4614 -40.7058 -19.254
-22.4468 -40.5285 -19.282
-22.2123 -39.9635 -19.3009
-17.9794 -43.3563 -19.1159
-18.5563 -43.4351 -19.1269
-18.9863 -43.3793 -19.1513
-19.901 -43.2019 -19.1664
-20.3022 -43.8654 -19.0894
-21.2826 -43.4811 -19.1113
-22.2028 -43.5796 -19.1249
-21.9171 -43.1231 -19.1374
-22.1859 -42.729 -19.2184
-21.6288 -41.8061 -19.1942
-20.7858 -43.6388 -19.0955
-19.1752 -41.0507 -19.1679
-18.8649 -41.6123 -19.1184
-18.9078 -41.3233 -19.1271
-18.1809 -42.0393 -19.1439
-20.0727 -41.7371 -19.1144
-19.8914 -42.0196 -19.1346
-21.1079 -41.0737 -19.2213
-20.8098 -40.1409 -19.2343
-17.6232 -47.1662 -18.9022
-17.9074 -46.7786 -18.9562
-17.7356 -46.1677 -18.9272
-18.3061 -48.0037 -18.8544
-17.8111 -48.1876 -18.8275
-15.6425 -49.1171 -18.6087
-17.0108 -48.874 -18.7256
-14.1553 -49.0481 -18.5963
-13.4563 -49.3864 -18.5541
-18.2549 -44.9788 -18.9982
-18.505 -45.5273 -18.9327
-18.6221 -45.8787 -18.9143
-18.6962 -47.0775 -18.9623
-19.535 -46.5553 -18.909
-19.4178 -47.4388 -18.9214
-20.2549 -46.7031 -18.9602
-20.3783 -47.3468 -19.0196
-18.3221 -46.8344 -18.976
-18.52 -47.2154 -18.957
-19.0455 -47.7869 -18.9181
-20.0082 -48.0234 -18.9856
-18.5636 -47.7048 -18.889
-21.5575 -47.7803 -19.0013
-22.3531 -48.0759 -18.9964
-21.4508 -46.3681 -19.1309
-21.6503 -46.6866 -19.1265
-21.1417 -46.6407 -19.072
-21.5474 -47.0217 -19.0898
-20.6836 -47.5767 -19.0256
-21.3336 -47.337 -19.0682
-22.0468 -47.6358 -19.0178
-22.2555 -47.0709 -19.0588
-22.3338 -44.6569 -19.1837
-22.2002 -44.9328 -19.1692
-22.0937 -45.5273 -19.0855
-21.5147 -45.9083 -19.1112
-21.0289 -45.8918 -19.0982
-20.6994 -46.1776 -19.0166
-19.7863 -45.5733 -19.0159
-19.0449 -46.1316 -18.9198
-19.2553 -45.4846 -18.9813
-18.9511 -45.1791 -19.0036
-18.3209 -44.0296 -19.0604
-18.9131 -43.9705 -19.076
-19.5006 -44.1248 -19.066
-19.6773 -44.5518 -19.0576
-20.541 -45.2941 -19.1158
-20.8915 -44.8211 -19.0999
-21.7621 -44.9821 -19.1216
-21.381 -44.4894 -19.1658
-20.451 -44.4763 -19.1025
-20.3648 -45.0445 -19.1106
-21.223 -44.0362 -19.1704
-21.8967 -44.312 -19.1898
24.9283 -9.97065 21.1178
25.2937 -10.2794 21.0451
25.0871 -9.5404 21.08
25.535 -9.14299 20.9521
25.8161 -9.38604 20.9139
26.5176 -9.04446 20.8307
26.7041 -9.57325 20.8661
27.1821 -8.45984 20.7612
23.7971 -9.75717 21.0503
24.2267 -10.2038 21.0508
24.5504 -9.38275 21.0726
24.6705 -9.12 21.0713
24.3205 -9.03461 21.0421
24.0306 -8.77514 21.0528
23.4333 -8.82112 21.0566
23.9959 -8.18396 21.0041
23.4264 -7.97047 21.018
22.9892 -6.96874 20.9807
23.5963 -6.29216 20.983
24.296 -6.38084 21.0611
24.5786 -6.23632 21.0315
24.4426 -6.84722 21.0357
24.7119 -7.09683 20.9964
25.4535 -6.5779 20.9108
25.1835 -6.95889 20.9519
25.5858 -7.33659 20.8595
25.2025 -7.58949 20.9344
25.5856 -8.30548 20.8851
25.1468 -8.11498 20.9458
25.1346 -8.35803 20.9583
24.6808 -8.35803 20.9948
24.9767 -8.96235 21.0499
26.0012 -6.26917 20.9151
26.063 -6.52206 20.8945
26.0794 -8.04273 20.8462
26.1151 -8.6799 20.836
26.7881 -6.69614 20.782
24.1468 -7.39571 21.0241
23.4591 -7.42855 20.9967
23.8487 -6.93918 20.9996
24.3303 -7.17894 21.0108
26.8993 -10.0331 20.8539
26.3037 -10.0166 20.8783
26.7706 -7.80297 20.8021
26.8158 -7.24134 20.7861
26.1708 -7.33659 20.8622
26.3172 -6.85379 20.8624
22.9746 -9.18241 21.087
22.9834 -12.5653 21.1145
23.0034 -13.5342 21.1508
23.5789 -14.0466 21.1592
24.1078 -14.1122 21.1178
26.1778 -14.0236 20.9008
25.3619 -13.7772 20.964
24.8191 -14.109 21.0409
24.9145 -13.5408 21.0842
24.6462 -13.6754 21.1023
24.2629 -13.0777 21.1396
23.8032 -13.59 21.1913
23.9588 -12.9726 21.1619
24.0747 -12.342 21.1588
24.3584 -12.4996 21.1514
24.4654 -11.5077 21.1088
24.6242 -12.2369 21.1085
24.9018 -10.5454 21.1044
24.9428 -11.6227 21.0807
25.8356 -10.5027 20.8828
22.943 -10.9954 21.0614
23.8486 -10.9067 21.0311
23.7569 -12.0595 21.1159
26.7393 -11.6358 20.832
27.0899 -10.9658 20.816
26.5123 -10.9527 20.8067
26.0713 -11.0151 20.8606
26.222 -11.557 20.8686
26.6797 -12.2533 20.8536
25.691 -11.2647 20.9091
25.7211 -12.2237 20.8945
26.3713 -12.1121 20.874
25.834 -12.8248 20.9493
26.6686 -13.1598 20.9258
27.1093 -14.329 20.9667
26.1429 -13.6689 20.9212
26.7448 -14.0071 20.9371
25.3458 -13.1204 20.9866
25.2158 -12.7985 20.9817
25.4877 -11.603 20.9296
27.1686 -18.3721 21.0398
26.9589 -18.5002 21.0517
27.0889 -17.3112 21.0251
26.5719 -17.9484 21.036
27.0822 -17.6692 21.036
26.836 -14.5458 20.9411
26.6952 -15.0122 20.9828
25.6947 -16.4376 20.9936
25.2965 -17.3441 21.0127
25.654 -15.9187 20.9977
23.3443 -14.6542 21.1721
23.9061 -14.9301 21.1529
24.4846 -14.6213 21.0658
24.5346 -15.5869 21.1191
25.0563 -14.5589 20.9837
25.1002 -15.2027 21.0027
25.5993 -15.5935 20.9938
24.9306 -15.5147 21.0556
25.1661 -16.3982 21.0589
24.9805 -15.9679 21.0654
24.6625 -16.3653 21.0856
24.0109 -16.211 21.1785
23.4563 -15.9909 21.2167
22.9581 -16.2799 21.2418
23.373 -15.5508 21.1925
23.0805 -18.7202 21.2099
25.2235 -17.9911 21.0245
25.883 -18.4443 21.018
25.6689 -17.7645 20.9845
26.4442 -17.4262 21.0064
26.1505 -17.0452 20.9956
26.85 -16.3785 21.0617
26.1283 -16.096 20.99
26.5905 -15.5935 21.0007
26.0934 -15.5672 20.9353
26.2794 -15.1238 20.9468
25.915 -14.7166 20.9232
22.892 -15.022 21.1796
23.0741 -14.7297 21.1637
23.106 -17.0649 21.2071
23.6543 -17.4886 21.1662
24.639 -17.0189 21.0833
24.3821 -17.6003 21.0846
24.4419 -18.0502 21.1065
23.9192 -18.1422 21.1507
23.0712 -17.5608 21.196
22.8647 -17.5543 21.1934
27.0862 -19.1143 21.1009
26.0152 -19.1341 21.0358
26.0072 -18.8056 21.0125
24.1077 -18.868 21.1869
24.0146 -18.9271 21.194
25.2039 -22.8191 21.1188
27.3795 -21.801 21.1253
25.5903 -21.7517 21.067
25.3697 -22.448 21.0879
25.197 -22.0309 21.0862
24.4862 -22.2903 21.1495
23.865 -22.4316 21.2833
26.1781 -20.5529 21.0689
25.9656 -19.8599 21.0439
22.8749 -19.2654 21.2611
23.7646 -18.7826 21.1963
23.4539 -19.5249 21.273
24.0074 -19.5939 21.2877
23.6124 -20.3197 21.3299
23.9912 -20.2015 21.3103
23.9159 -20.7894 21.3093
24.4428 -20.3723 21.2294
24.501 -21.328 21.1302
24.6597 -20.901 21.1239
25.034 -21.1605 21.0846
24.9626 -20.2245 21.1426
25.6628 -20.8682 21.0628
25.2731 -20.4084 21.0915
25.3675 -18.9567 21.0435
25.2494 -19.9453 21.0772
24.6645 -19.5479 21.1556
24.2382 -19.8533 21.2593
24.6785 -19.0585 21.1321
23.2412 -22.5695 21.3863
23.5631 -22.31 21.35
23.1915 -21.5612 21.2758
23.6399 -21.3609 21.2845
23.6667 -20.924 21.3159
23.9777 -21.6564 21.2136
22.9508 -20.1489 21.2545
26.4499 -22.7896 21.1985
26.6247 -21.6466 21.1636
26.532 -21.7583 21.157
27.0062 -21.0718 21.1808
26.3265 -20.9864 21.1016
26.996 -20.5201 21.1883
26.789 -19.6793 21.1242
27.4207 -19.6858 21.1135
26.7911 -22.9439 21.2378
25.4822 -27.0527 21.2315
25.2943 -26.3794 21.156
26.2633 -26.4549 21.1947
25.6928 -25.7192 21.1924
26.2726 -25.9458 21.2086
26.311 -25.4827 21.1976
27.1015 -26.2841 21.1807
22.9605 -23.5515 21.4424
22.9 -24.458 21.347
23.1644 -23.6336 21.4142
23.0972 -24.389 21.3298
23.7391 -24.3299 21.2366
23.2836 -24.8521 21.2901
23.9723 -24.8883 21.2211
23.0969 -25.3809 21.3119
23.3179 -25.647 21.3148
22.9053 -23.0359 21.3711
23.4243 -22.9603 21.355
26.3773 -24.7569 21.1967
26.6598 -23.9062 21.2362
26.0035 -24.0343 21.1473
26.3592 -23.5384 21.2244
26.0995 -23.3118 21.1514
25.7093 -22.9341 21.0751
24.0552 -23.7256 21.259
24.1573 -23.3282 21.2539
24.9026 -23.9654 21.1838
25.3927 -23.5023 21.0979
25.6267 -23.4267 21.0926
25.6723 -24.3956 21.1637
25.0716 -24.9113 21.176
24.9133 -25.7061 21.2062
24.6661 -26.5535 21.2077
24.1638 -25.6831 21.231
23.1372 -26.4024 21.3649
23.1201 -26.8261 21.3713
23.871 -26.8589 21.3056
26.8937 -5.68783 20.7369
26.8324 -27.1413 21.2695
26.1624 -27.4829 21.3031
25.6222 -27.9033 21.2546
25.1742 -28.3697 21.1948
24.8642 -28.6653 21.2007
23.789 -27.7325 21.2464
24.7575 -27.8081 21.2177
24.2096 -27.3942 21.2449
25.1894 -27.565 21.231
24.8164 -27.2103 21.2294
25.8265 -27.5092 21.2879
26.6824 -31.0826 21.2598
26.5254 -30.2779 21.2866
26.1109 -30.7542 21.3163
25.9079 -30.0382 21.3172
25.6074 -29.8772 21.3174
22.9243 -30.9676 21.3536
23.493 -30.6523 21.3354
23.532 -31.3092 21.2792
23.5659 -30.8855 21.3176
24.2133 -30.9052 21.292
23.3401 -27.3056 21.358
26.265 -29.3255 21.2468
26.7992 -29.2696 21.1919
25.656 -30.9151 21.3306
24.8514 -30.9315 21.29
24.8925 -30.383 21.3098
24.0343 -30.2779 21.325
24.9424 -29.6999 21.282
23.8375 -30.025 21.3287
23.9647 -29.5554 21.2968
23.1487 -29.5554 21.3857
22.9991 -28.3172 21.2932
22.9262 -28.951 21.3801
23.6967 -28.5142 21.2577
23.8458 -28.8656 21.2512
24.5079 -28.6686 21.2063
24.9082 -29.0693 21.2257
25.7222 -29.1842 21.2486
25.7051 -28.4847 21.2234
26.2964 -28.8032 21.2288
26.3455 -28.258 21.2283
27.1834 -28.1431 21.1648
26.7099 -27.3351 21.2895
31.5497 3.78758 16.9385
31.6511 3.85655 16.0776
31.3971 2.5428 18.6071
31.5155 3.44272 17.6962
27.78 -0.780982 20.5304
27.7079 -0.173374 20.5524
30.5746 0.421098 20.3587
27.7305 1.1568 20.5385
28.3257 0.457226 20.4962
28.6446 0.844782 20.4863
29.5952 0.667426 20.5032
30.2388 0.434235 20.4621
30.2152 0.838213 20.4538
31.2953 3.28179 19.1122
31.2172 2.68403 19.5565
31.1439 2.46726 19.7381
30.8217 1.28489 20.201
30.7461 1.01557 20.2572
30.9383 1.83666 20.0836
22.9952 -3.5924 20.8963
22.9177 -2.9421 20.926
23.4049 -5.83891 20.9791
23.9999 -5.94401 20.9999
24.1855 -5.76994 20.9875
25.1534 -5.83891 20.9289
25.7411 -5.9046 20.9308
25.3095 -5.45464 20.8919
24.7669 -5.31998 20.9807
24.9182 -4.75179 20.9495
24.2137 -4.69595 20.9464
24.7285 -4.16717 20.9977
23.8118 -4.25913 20.9125
24.5727 -3.81574 20.94
24.1341 -3.65809 20.8625
24.4799 -3.52015 20.8839
24.3945 -3.08004 20.8648
25.1563 -3.26725 20.865
24.5117 -2.49542 20.8523
25.4838 -2.60709 20.7955
25.6567 -3.03078 20.8092
26.2109 -3.24098 20.7531
25.552 -3.56613 20.8962
26.3646 -3.82231 20.7348
25.4328 -4.29526 20.9137
26.0345 -4.54159 20.8485
25.5322 -4.88645 20.8718
25.8287 -5.40209 20.8878
23.9996 -5.28386 20.982
23.3648 -4.92914 20.938
22.9791 -4.16717 20.919
23.8227 -3.50373 20.8658
24.1912 -2.71219 20.8477
23.1767 -2.78445 20.9256
23.9168 -2.144 20.7999
23.237 -2.18341 20.9024
24.7266 -2.07831 20.821
26.3943 -2.84357 20.7338
26.6123 -1.98963 20.7572
26.8121 -2.64979 20.7331
26.9413 -2.06517 20.7338
27.3396 -2.22282 20.6516
26.8575 -3.16872 20.7607
26.4607 -3.195 20.7389
26.4442 -4.1179 20.7436
26.2966 -5.38896 20.7902
26.6668 -5.17219 20.7176
24.6823 -1.34589 20.7405
23.0697 -0.114255 20.818
23.5738 -0.439407 20.8152
26.5519 0.181339 20.7053
26.8488 -1.61521 20.7016
26.6783 -1.42472 20.7068
25.258 -1.81228 20.7609
24.0155 -1.57908 20.7973
23.2437 -1.50354 20.8539
24.4104 -0.905788 20.7491
23.6857 -0.521517 20.8163
24.7062 -0.498526 20.7608
24.3641 0.0302577 20.7863
25.1718 -1.03388 20.7314
25.571 -0.00915479 20.697
25.7186 -1.59551 20.7195
26.1158 -0.344161 20.6902
26.6314 -1.07329 20.7082
26.8907 -0.416417 20.7257
26.9677 -1.08971 20.6722
27.4239 -0.849954 20.5795
32.2688 7.24274 8.32765
32.2306 6.33953 8.95127
32.3545 7.8799 7.03116
32.1414 6.49718 9.90638
32.1794 7.67956 9.38941
32.0368 5.88958 11.821
31.7561 3.93209 14.8507
31.8244 3.90253 13.843
31.7141 3.41644 15.3027
32.0366 4.99294 11.9217
31.9454 4.79916 12.8878
26.0435 -35.2078 21.2575
26.284 -34.6461 21.2669
26.0985 -33.8053 21.3544
25.4968 -34.032 21.4196
25.7707 -33.1747 21.3684
25.4893 -32.8397 21.3511
25.8527 -32.8956 21.3585
25.0991 -32.0088 21.2808
25.8306 -31.5982 21.2837
25.4329 -31.4078 21.2892
27.0309 -34.0747 21.2113
26.4671 -31.8906 21.2356
23.6208 -35.3983 21.3335
22.9905 -34.8268 21.3468
25.2483 -35.1355 21.3178
23.9111 -34.9089 21.3092
23.3298 -34.6264 21.3219
23.826 -34.1666 21.3395
24.2299 -33.6871 21.3308
23.4203 -33.3849 21.3592
23.8959 -32.4259 21.2729
23.6729 -31.9628 21.2751
23.7361 -31.6048 21.257
22.9633 -32.6065 21.3725
24.7657 -31.3913 21.2529
24.3323 -31.8183 21.2685
24.4343 -32.6263 21.2574
24.6422 -33.247 21.2941
24.9693 -34.2257 21.3945
24.4172 -34.6823 21.3389
25.2881 -34.6987 21.341
26.1086 -32.4817 21.3035
26.6956 -32.9941 21.226
27.6233 -37.0864 21.2389
26.9765 -35.5953 21.1818
27.4871 -39.4249 21.1937
27.2668 -38.5743 21.195
26.7425 -39.0932 21.187
26.6274 -38.5151 21.2004
26.1151 -38.9388 21.2431
25.3268 -38.8436 21.3044
24.8976 -39.507 21.3594
24.6068 -39.4939 21.3598
24.1507 -39.6909 21.3459
26.7284 -37.855 21.2481
25.7774 -38.1965 21.2824
25.951 -37.5167 21.332
23.1374 -36.0453 21.3769
24.955 -38.1341 21.331
24.8714 -38.6432 21.3263
24.2193 -38.3608 21.3203
24.1471 -38.8961 21.3364
23.75 -39.4775 21.3777
22.976 -38.9093 21.3464
23.8838 -38.0685 21.329
24.283 -37.9962 21.3261
23.1192 -38.1046 21.3235
23.582 -36.2423 21.4016
23.423 -37.1718 21.396
23.3687 -36.6036 21.4099
24.1792 -37.2933 21.3918
24.5842 -36.4887 21.4053
24.9999 -37.3032 21.4038
25.2683 -36.469 21.3917
25.3533 -36.6759 21.393
25.3086 -35.5461 21.3262
26.5128 -36.3967 21.2752
26.8001 -36.3442 21.2397
26.5186 -37.2441 21.2915
27.0222 -37.2244 21.2589
27.3755 -37.6842 21.2421
32.5177 8.71085 2.73747
32.5339 8.18863 2.78991
32.4957 9.73229 3.85807
32.4951 9.17066 3.97239
32.5964 9.86038 1.28978
32.535 9.99504 2.5553
32.5181 10.2808 3.24344
32.6427 10.514 0.432568
32.6151 9.06228 0.809866
32.5111 7.74196 3.94378
32.5202 8.32986 3.57626
32.4913 8.36599 4.43902
32.4605 8.15579 5.00651
32.4203 7.87005 5.52256
32.4129 8.50722 5.60429
27.8124 -39.8059 21.1924
31.2789 -44.2299 21.3891
31.5934 -44.2398 21.2527
31.822 -44.0296 21.0298
27.5705 -41.2247 21.3681
31.0344 -44.3942 21.4274
30.8508 -45.2612 21.4663
32.0359 -44.3777 20.6503
31.9536 -44.0197 20.83
28.9639 -43.9606 21.2767
27.5866 -42.972 21.308
27.8554 -44.1544 21.3514
28.8456 -44.5978 21.3044
29.428 -44.3613 21.3139
30.2862 -44.6963 21.3737
27.7282 -41.9112 21.3456
29.4119 -45.4222 21.3049
29.7981 -44.9164 21.3478
29.9663 -46.4863 21.4049
30.1089 -47.0085 21.4213
30.7247 -47.4388 21.5203
31.1418 -48.0168 21.5529
30.8859 -47.1202 21.5329
30.8183 -46.3713 21.5056
30.3464 -45.4846 21.4196
31.1756 -46.6834 21.5162
31.3039 -47.4223 21.5066
31.7345 -47.9577 21.3041
31.6094 -47.465 21.3743
31.8854 -47.4552 21.0988
31.722 -46.9264 21.2611
31.961 -47.3304 20.9676
31.8301 -46.3418 21.1341
31.9946 -46.1119 20.8438
31.4903 -46.9264 21.4294
30.981 -45.6028 21.4892
32.1129 -46.7589 20.5533
32.0564 -46.4403 20.7106
31.7046 -44.8178 21.1804
28.2841 -47.3402 21.3791
28.0549 -46.7523 21.3845
30.3613 -48.0562 21.4754
29.4312 -47.5143 21.3745
28.7403 -47.5833 21.3615
29.3404 -47.1333 21.3569
28.7309 -46.7261 21.3041
29.2448 -46.5586 21.3076
28.8743 -46.0331 21.2872
29.2834 -45.721 21.3026
28.6221 -45.5076 21.3202
31.0961 -44.6996 21.4383
31.4242 -44.8638 21.3671
31.3391 -46.148 21.4665
31.5351 -45.6291 21.352
31.6813 -46.3188 21.3027
31.8093 -45.2645 21.0935
31.9255 -45.2711 20.9146
32.4665 -48.7197 10.7131
32.4258 -49.6721 10.498
32.4023 -50.109 10.3455
32.3605 -50.467 10.1772
32.2808 -50.6772 10.3126
32.1377 -50.8348 11.2681
32.2935 -50.4407 11.2566
32.2374 -50.5129 12.8781
32.3182 -50.2009 11.9884
32.3103 -50.2272 12.7536
32.3955 -49.2977 12.1346
32.3638 -49.3634 13.0297
32.3348 -49.347 13.3984
32.3505 -49.0645 13.7273
32.2384 -50.04 14.4907
32.3611 -48.9135 14.1823
32.3535 -49.7575 11.5098
32.4146 -49.1729 11.5284
32.4475 -48.943 10.9558
32.1998 -50.421 13.7193
31.9619 -50.8775 13.8473
31.7186 -51.1501 13.9513
32.0361 -50.8841 12.937
31.6162 -51.2683 13.3062
31.5295 -51.3439 14.2546
31.3325 -51.6395 14.428
31.3379 -51.6526 13.9384
31.4713 -51.426 13.4272
31.3202 -51.6231 12.769
31.5507 -51.3505 12.4599
31.9188 -51.0352 12.5365
31.7714 -51.1797 11.8127
31.8757 -51.1173 11.032
31.1254 -51.669 11.3153
31.2474 -51.6132 10.6332
30.9138 -51.9646 10.9687
30.8839 -51.9646 10.4006
30.8466 -52.05 10.5464
30.8274 -52.0796 10.4077
30.789 -52.188 9.8675
30.8163 -52.2011 9.32807
30.9671 -51.8858 9.30454
31.0553 -51.7741 9.92363
31.5001 -51.4457 9.99788
31.9729 -51.0713 10.3194
31.9571 -51.1041 9.91544
32.1143 -50.6148 13.8383
31.0478 -51.7774 11.8586
31.1645 -51.6986 12.2668
30.9864 -52.1321 12.16
31.0819 -52.0238 12.6914
31.012 -52.3423 12.5702
31.0903 -52.188 13.0329
31.0685 -52.3292 13.2328
31.2242 -51.8858 13.3596
31.1515 -52.1913 13.909
30.9395 -52.2241 11.5351
32.2631 -50.0991 13.7763
32.0361 -50.8841 12.937
31.6162 -51.2683 13.3062
31.4713 -51.426 13.4272
32.5028 -49.1138 9.54938
32.1651 -50.352 15.192
32.0653 -50.6673 15.1724
32.1325 -50.5097 16.1519
32.0524 -50.5589 17.2275
32.1112 -50.4144 17.9781
31.9629 -50.7067 18.3584
32.1479 -50.1747 19.5055
32.0565 -50.4702 19.1577
31.909 -50.7264 19.1352
31.8331 -50.8217 19.6615
32.2162 -48.9857 19.4995
32.1905 -49.3667 18.7515
31.6125 -51.0943 19.0502
31.4181 -51.3143 18.3277
31.1622 -51.6822 18.5329
31.0844 -51.8924 17.3928
31.5481 -51.1961 17.331
31.8954 -50.7987 17.3294
31.9893 -50.7428 16.4
31.9301 -50.8414 16.0385
31.8774 -50.9333 14.8776
31.6099 -51.1304 16.9033
31.3331 -51.3767 15.9476
31.3667 -51.3505 15.8239
31.3046 -51.4753 15.2319
31.6773 -51.1271 14.9588
31.3665 -51.4096 16.7761
31.1782 -51.7873 17.1647
31.0914 -51.8989 16.3921
31.2287 -51.541 16.1276
30.9541 -52.1748 15.9928
31.1574 -51.9679 15.0772
31.208 -51.807 14.9411
31.1098 -52.2438 14.5982
31.0949 -52.1157 15.3564
31.3907 -51.4194 19.118
31.3912 -51.4457 19.705
28.8955 -52.2471 17.4516
29.6383 -52.142 17.8072
30.614 -52.2307 17.015
30.4725 -52.1124 17.9099
30.1763 -52.0238 18.4
30.8105 -51.9843 18.1888
30.8632 -52.1289 17.046
31.1622 -51.6822 18.5329
31.2184 -51.6034 18.99
31.3907 -51.4194 19.118
31.3912 -51.4457 19.705
30.6278 -52.3522 16.0529
31.2184 -51.6034 18.99
30.9661 -51.7511 18.9794
30.7287 -51.853 18.9496
30.8344 -52.2832 15.9804
30.6278 -52.3522 16.0529
31.1782 -51.7873 17.1647
31.0844 -51.8924 17.3928
31.0914 -51.8989 16.3921
30.8344 -52.2832 15.9804
30.9541 -52.1748 15.9928
30.9512 -52.3456 15.1676
31.0949 -52.1157 15.3564
31.1098 -52.2438 14.5982
28.2717 -51.9384 18.5939
30.4464 -51.8365 19.1098
30.9198 -51.6822 19.5363
30.7287 -51.853 18.9496
30.9661 -51.7511 18.9794
29.7893 -51.8004 19.2794
29.3353 -51.8135 19.2288
29.2418 -51.9548 18.6172
28.3179 -52.1551 17.8493
28.3755 -51.7413 19.5734
29.9321 -52.0139 18.4502
29.2833 -52.0435 18.323
28.7197 -52.165 17.8397
28.5789 -52.2537 17.3993
32.2367 -49.774 14.9582
32.301 -49.0547 15.1126
32.2758 -49.5309 15.4652
32.3022 -49.0186 15.6604
32.2775 -49.255 16.519
32.2677 -48.9463 16.9949
32.2208 -49.2977 17.4843
32.2066 -49.4882 18.1657
32.1886 -49.7838 17.9801
32.1446 -50.109 18.7691
32.1959 -49.774 17.2226
32.1553 -50.2403 17.2642
32.185 -49.9842 17.1942
32.2081 -50.2633 15.9456
31.9998 -48.296 20.9745
32.0829 -48.8905 20.8366
32.1456 -50.0728 20.3442
32.1932 -49.2813 19.9717
31.5137 -51.311 20.3864
31.5447 -51.091 21.1961
31.7616 -50.7593 21.2723
31.5137 -51.311 20.3864
31.2878 -51.3603 20.6777
31.5379 -51.2454 20.7565
31.1945 -51.311 20.8981
31.7711 -51.0384 20.7469
31.5447 -51.091 21.1961
31.4006 -50.8841 21.3964
31.8495 -50.825 21.097
31.7616 -50.7593 21.2723
28.4918 -48.7755 21.3664
29.2563 -48.7886 21.3659
28.7899 -49.6163 21.3158
29.1815 -49.6196 21.3196
28.1442 -50.6443 21.3185
29.3119 -50.1911 21.3485
29.0718 -50.6673 21.363
30.0888 -49.8988 21.4165
30.3604 -50.4834 21.4651
30.5201 -49.8988 21.4751
30.8929 -49.8101 21.5399
30.6811 -49.3733 21.5132
30.7855 -48.7886 21.521
31.0498 -48.9036 21.5446
31.2116 -49.7214 21.5555
31.3484 -49.1138 21.5239
31.4389 -49.6689 21.5236
31.6831 -49.3338 21.3983
31.6378 -49.6524 21.4518
31.8258 -49.9973 21.3456
31.5222 -50.0039 21.5104
31.6246 -50.5885 21.4481
31.3292 -50.5031 21.5294
31.4006 -50.8841 21.3964
31.0384 -50.664 21.4923
30.8043 -50.9202 21.3789
29.7065 -50.8644 21.3635
30.5008 -51.1731 21.2178
29.5267 -51.1468 21.161
30.3919 -48.8872 21.4531
29.8195 -48.8412 21.3868
29.6732 -48.4339 21.3925
30.851 -48.2434 21.5533
31.4824 -48.4504 21.4872
31.8375 -48.6179 21.2341
30.9916 -50.2535 21.5372
30.4903 -50.5786 21.4701
28.4798 -51.3537 20.8337
28.4604 -51.1665 21.09
29.5267 -51.1468 21.161
28.0144 -51.0647 21.1753
30.5008 -51.1731 21.2178
29.7188 -51.3505 20.9064
30.6515 -51.3308 21.0006
30.4569 -51.495 20.6732
30.8187 -51.4326 20.7471
30.597 -51.5541 20.4079
30.9134 -51.5147 20.4167
28.3239 -51.5081 20.4757
29.6547 -51.4983 20.5448
29.6276 -51.5771 20.2762
28.0131 -50.8348 21.2913
