VERSION .7
FIELDS x y z
SIZE 4 4 4
TYPE F F F
COUNT 1 1 1
WIDTH 1940
HEIGHT 1
VIEWPOINT 0 0 0 1 0 0 0
POINTS 1940
DATA ascii
-1.87069 49.6717 -18.4735
-1.34102 49.7937 -18.5023
-0.446338 49.4562 -18.4911
0.573274 48.8625 -18.4889
-2.38356 49.0658 -18.5029
-3.72382 48.2607 -18.601
-3.15461 49.0536 -18.5987
-3.02731 48.5575 -18.6029
-8.20391 44.2797 -18.6441
-8.65139 44.906 -18.6409
-9.58727 44.4424 -18.6786
2.0486 48.8381 -18.411
1.70559 48.033 -18.4049
2.46513 49.566 -18.3788
3.14858 48.9073 -18.4065
3.4431 49.7449 -18.3283
4.30281 49.3464 -18.3157
5.1881 48.8788 -18.25
5.87293 48.769 -18.2306
5.53029 49.2407 -18.2369
7.40708 47.6426 -18.1018
7.63034 48.155 -18.1983
7.40459 48.6999 -18.2137
6.97419 49.2366 -18.1845
6.3142 49.1268 -18.2279
7.84845 47.3173 -18.0257
8.05919 47.9639 -18.1836
8.6592 47.9069 -18.0577
10.1082 48.5901 -17.9404
10.3446 48.9398 -17.9093
10.638 48.769 -17.9299
10.9335 48.338 -17.928
8.69399 48.4681 -18.0699
9.52093 48.4356 -17.9942
11.4734 47.7809 -17.8269
11.2843 47.8012 -17.8483
12.9213 48.0289 -17.7798
13.5522 47.362 -17.7234
13.9124 47.5776 -17.766
12.4498 48.1916 -17.8343
12.1555 47.9191 -17.8338
11.9832 48.281 -17.8794
15.6326 48.1916 -17.6298
15.0832 48.0249 -17.6763
13.5499 48.7609 -17.7566
13.0017 48.4478 -17.8062
17.4626 49.5863 -17.5453
17.3732 48.7365 -17.5393
18.1207 50.6233 -17.4457
16.1015 48.4234 -17.6193
16.6351 49.322 -17.5177
18.0132 52.2051 -17.5589
26.4446 63.1029 -16.4842
26.3295 63.6438 -16.3045
26.3687 63.8674 -15.2142
26.1291 64.2009 -14.5626
26.2396 63.9203 -16.1557
26.3481 63.9203 -15.8188
25.3756 63.1436 -16.892
25.0911 62.7004 -16.987
25.1278 63.66 -16.8178
25.8322 63.6153 -16.6605
26.0735 63.2697 -16.6771
26.3115 62.9159 -16.6506
24.2281 62.4645 -17.0582
19.9851 55.7591 -17.361
19.1974 54.4782 -17.3932
19.1679 53.673 -17.4357
19.4308 53.1566 -17.4332
23.2399 60.106 -17.1707
22.4914 59.4961 -17.2898
22.2238 59.5327 -17.2678
21.7026 59.305 -17.1778
21.5147 58.4713 -17.2647
20.5054 58.4835 -17.4372
20.3371 57.9305 -17.4093
20.1178 57.3124 -17.4199
20.1445 56.8611 -17.4038
23.6659 62.1026 -17.0519
23.6182 61.6512 -17.0208
23.3756 60.5127 -17.1192
26.5398 59.4757 -4.60291
26.4561 60.5696 -2.68274
26.5396 60.5086 -4.64766
26.4703 61.6187 -5.67711
26.4758 61.7936 -6.26403
26.5558 61.6756 -6.99087
26.5281 62.0823 -7.23077
26.567 57.5361 -0.863746
26.5358 57.5889 -0.335383
26.521 56.2674 0.577608
26.5488 55.7672 0.726476
26.5928 55.3931 0.382839
26.5168 56.6862 0.0629343
26.4914 55.0678 1.22636
26.5127 54.1935 0.798789
26.7579 53.6649 -3.35495
26.4756 60.228 -2.34664
26.5148 59.1423 -1.86727
26.5373 57.8614 -1.42617
26.4908 58.9674 -1.12117
26.4665 60.2605 -3.07975
26.4779 60.2402 -3.66035
26.503 59.7848 -3.83246
26.4401 62.798 -7.21156
26.3849 63.0379 -6.75174
26.3465 63.2819 -8.29181
26.2576 63.534 -7.81748
25.9284 64.2374 -8.88562
25.8228 64.4855 -9.55888
25.7525 64.7092 -10.5513
26.103 64.0382 -11.088
26.2423 63.778 -12.1048
26.1518 64.0748 -13.4712
25.9392 64.4611 -13.1553
25.8665 64.5587 -12.8448
26.0772 64.1317 -12.4989
26.5673 50.7453 3.62376
26.63 50.7859 3.12633
-17.8956 12.5499 17.159
-16.6651 14.0016 17.2465
-17.6146 13.6356 17.1505
-11.0979 17.2709 17.7488
-11.2928 17.6735 17.6926
-11.8027 17.7833 17.6379
-16.4457 14.9531 17.2285
-14.1528 18.0314 17.4706
-13.3858 17.8768 17.5663
-11.7763 18.8121 17.6378
-12.3563 18.6332 17.6089
-15.0419 17.5759 17.387
-15.6405 17.4702 17.3422
-16.0307 17.2587 17.3046
-15.5827 16.2706 17.3338
-16.665 16.5553 17.2179
-17.0318 15.6851 17.1771
21.0714 40.2744 17.9675
21.3624 41.6041 17.9029
21.6349 42.6532 17.8386
21.2116 42.3197 17.8764
20.3517 40.0141 17.9209
20.4091 41.2381 17.8855
19.6704 39.1602 17.9425
19.5588 41.169 17.9202
18.4037 38.6356 18.0524
18.965 38.2412 18.026
19.187 38.9487 17.9896
16.6718 37.676 18.1357
17.4536 37.7898 18.1222
16.5371 36.9115 18.1436
17.7988 38.5502 18.11
26.2171 55.8892 7.87261
26.054 59.1748 8.46914
26.1425 58.1094 8.10896
25.9851 60.0166 9.10293
26.0387 58.8211 9.15145
26.0357 57.9793 9.68058
26.1603 58.1745 7.57252
26.2076 56.8367 7.68412
25.9694 58.8414 10.2674
25.9562 58.2111 10.8364
25.9669 56.979 11.163
25.9831 56.4382 10.9991
26.4843 54.0715 4.2348
26.2559 54.5229 7.49258
26.3019 53.9536 7.05873
26.3214 54.0187 6.78926
26.3341 54.1447 6.56125
26.3536 53.73 6.32572
26.375 54.592 5.19614
26.3671 54.5066 6.03911
26.4525 53.2583 3.31591
26.5513 52.9614 2.71765
26.5425 52.5589 2.91181
26.5474 51.8513 3.36247
26.4348 53.2827 3.68804
26.4472 52.9004 4.31557
26.4637 54.1081 4.57521
26.5636 51.3796 3.47014
25.3606 49.3017 17.1113
25.5088 49.3261 16.9186
24.4557 51.5097 17.5473
24.1266 50.2044 17.5939
23.7235 50.6883 17.6091
24.0286 52.8679 17.6637
24.7055 52.1929 17.49
24.9059 51.5341 17.4291
25.1607 51.709 17.2671
25.3245 50.6517 17.1497
25.4049 49.7002 17.0554
21.9449 44.418 17.8454
21.5848 44.5156 17.8256
21.2245 44.6294 17.8289
20.9537 45.4712 17.7923
21.5875 47.6426 17.7162
20.9638 47.5613 17.747
20.8473 46.8578 17.7439
22.8929 50.2573 17.5835
23.2404 50.6639 17.5759
22.2617 49.9604 17.6126
22.1718 49.1838 17.6935
21.6673 43.3892 17.8502
25.5394 49.6839 16.867
25.5681 50.0621 16.7983
25.5892 51.4528 16.6261
25.5962 54.5229 16.4311
25.6226 53.0428 16.4596
25.6563 55.5761 15.9861
25.5662 52.2823 16.6849
23.635 53.8601 17.6978
23.4146 52.9818 17.6956
22.9453 53.4169 17.6296
23.4703 54.4945 17.6647
25.8082 55.9868 14.2321
25.8905 56.7513 12.7686
25.8198 56.4097 13.7017
25.6401 56.4016 16.0427
25.733 55.938 15.2684
25.9498 56.8611 11.8051
25.9196 56.9017 12.2232
12.1921 34.7563 18.3125
12.5762 35.4761 18.2936
13.0964 36.1673 18.2514
13.6807 35.9844 18.2627
14.4038 35.7688 18.2715
14.6967 36.4113 18.2918
15.1913 36.9766 18.225
15.8578 36.4317 18.1768
16.324 37.1799 18.127
11.2886 31.7919 18.4275
11.3251 32.5808 18.4108
11.4791 33.4673 18.3602
11.3332 34.5083 18.2806
11.3849 34.1545 18.289
6.48409 28.0102 18.5369
6.79934 28.1037 18.5516
8.23445 30.1979 18.4587
7.59949 30.4216 18.47
6.96745 30.1898 18.4844
6.36462 29.3684 18.4287
6.66508 28.73 18.4847
8.38276 31.2104 18.4751
8.67928 31.4504 18.4685
9.36684 31.3812 18.4463
10.6254 31.2145 18.4326
9.90756 31.4544 18.4262
10.546 31.8611 18.4505
-0.589137 26.3552 18.2404
0.023185 26.6114 18.281
-1.58227 26.3023 18.2096
1.63787 27.9045 18.3889
1.36107 28.1322 18.3745
0.235516 27.8028 18.3169
3.19063 27.0424 18.4319
2.50343 27.8476 18.4078
3.90341 27.506 18.4752
4.61251 29.8523 18.4042
3.53939 28.856 18.4267
2.78242 28.0549 18.4162
5.58338 27.9939 18.5425
5.73242 28.0102 18.5342
6.21532 28.8397 18.4547
5.62017 29.5188 18.4455
5.01698 29.6449 18.436
-2.89148 26.0502 18.1493
-2.24491 26.3145 18.1792
-4.06433 24.936 18.1444
-6.18038 22.4474 18.009
-5.95937 23.3136 18.049
-5.48284 24.3098 18.1005
-7.09489 22.6873 17.9456
-7.89105 22.3132 17.8915
-6.34686 22.6955 18.0037
-9.24072 22.4637 17.78
-8.63442 22.6914 17.8374
-10.0785 21.3373 17.7742
-9.43268 22.5166 17.7609
-11.0348 20.8087 17.7143
-11.5357 20.8941 17.6513
-11.7281 20.7152 17.6391
-11.5119 20.0971 17.6643
-11.6972 19.4708 17.6662
-11.6908 17.9297 17.637
26.5908 52.0912 2.91312
26.6397 51.3267 3.02554
26.5324 52.994 1.64405
26.497 53.6242 0.984275
26.5532 52.6686 2.19157
-27.8126 32.9671 -7.68722
-27.8314 32.3897 -7.44782
-27.8425 31.3894 -7.36017
-27.8626 32.4263 -6.25138
-27.8486 32.471 -6.97539
-27.5463 34.2033 -10.7056
-27.5956 33.5933 -10.0643
-27.6256 33.4185 -9.74267
-27.6253 34.4554 -9.61923
-27.7672 33.5323 -8.0856
-27.2474 35.903 -13.2942
-27.1419 35.7119 -14.0357
-27.4829 34.8946 -11.6296
-27.4748 35.842 -11.7258
-27.3675 35.6143 -12.563
-27.5603 35.5249 -10.7515
-27.0428 37.0985 -14.6178
-23.1545 38.2534 -18.5498
-23.9272 38.6072 -18.5392
-22.6962 37.7207 -18.623
-24.3091 38.8715 -18.5265
-24.6836 40.2947 -18.5852
-25.3722 40.0101 -18.5546
-25.871 40.8884 -18.4308
-25.7428 41.5837 -18.4829
-25.5235 40.8071 -18.5456
-26.1211 40.9656 -18.2255
-26.6032 41.1771 -17.3614
-26.5366 41.3072 -17.598
-26.6728 40.6729 -16.9352
-26.5409 42.0473 -17.6483
-26.5202 42.6329 -17.7117
-26.3958 42.1124 -17.9174
-26.1585 41.4739 -18.1663
-24.0035 40.067 -18.6038
-26.7549 39.6969 -16.4684
-26.9651 38.5502 -15.1403
-26.8852 39.0789 -15.6688
-27.7498 25.3549 2.09409
-27.7686 25.8632 1.90304
-27.7608 26.4731 2.05676
-27.7656 27.2945 2.54573
-27.7941 27.4694 1.61768
-27.8256 27.9126 0.511338
-27.8211 27.9655 1.24588
-27.8394 28.1403 -1.66914
-27.844 27.9045 -0.25829
-27.8394 28.3315 -0.157874
-27.8274 28.3396 0.171084
-27.8533 28.9943 -1.84541
-27.8773 30.4094 -1.54057
-27.876 30.9949 -3.74609
-27.8744 30.206 -3.81856
-27.8948 31.4056 -3.29762
-27.8983 31.3975 -2.46147
-27.8681 29.8645 -4.52658
-27.8705 29.9824 -4.69559
-27.8617 31.3406 -5.02013
-27.877 31.3243 -5.78659
-27.8554 32.7475 -5.6942
-27.7119 25.6111 4.00908
-27.7384 25.4159 2.96228
-27.6352 24.2041 6.01383
-27.6216 23.281 5.83446
-27.6321 24.7368 5.76166
-27.6515 25.2085 5.79893
-27.699 25.4362 4.90122
-27.7396 25.5826 2.6259
-27.5887 22.5531 6.45019
-27.5941 23.3746 6.70848
-27.3078 20.8575 12.6849
-27.3389 20.6013 11.9342
-27.3721 21.012 11.2684
-21.3552 15.0914 16.7703
-21.1292 14.7051 16.7965
-20.9199 14.2659 16.8577
-19.588 13.7657 16.968
-20.0103 13.8999 16.9349
-18.9499 13.3266 17.044
-18.4594 14.1114 17.0396
-18.3752 13.4933 17.065
-25.3611 21.9107 16.1685
-26.2519 22.0083 16.0841
-26.5503 22.5654 16.0166
-26.4884 24.0089 15.9743
-25.6373 22.5816 16.1239
-25.9706 23.1631 16.0917
-26.9745 23.3461 15.7343
-27.0606 24.7043 15.5614
-27.1839 24.3139 15.2996
-26.8475 24.4399 15.7817
-27.2126 23.83 15.1986
-26.7668 21.2357 15.9019
-26.4809 20.0157 16.0439
-26.8075 22.0327 15.8684
-27.2653 24.5579 14.8307
-26.2787 19.5196 16.0911
-27.3854 24.3952 12.4375
-27.3648 23.7771 12.3347
-27.3845 22.3498 11.6877
-27.3509 24.4765 13.0487
-27.3303 23.5697 13.2459
-27.3597 24.318 12.8355
-27.3057 24.5497 13.7095
-27.3859 21.8619 11.6406
-27.3481 21.4634 12.005
-27.3037 24.9198 14.4679
-25.7291 19.3001 16.1592
-22.893 18.686 16.4932
-22.2852 18.6047 16.5691
-23.7412 19.5481 16.3807
-24.0827 19.5888 16.3428
-24.5475 19.3977 16.304
-24.786 20.3939 16.279
-25.2878 19.3489 16.1959
-21.2222 16.417 16.6937
-21.6075 17.4051 16.6763
-21.3355 18.3729 16.6759
-21.6077 15.8721 16.6655
-27.4495 21.9513 9.86531
-27.486 22.179 9.23713
-27.5264 22.9801 8.65359
-27.5677 23.5535 7.85171
-27.5903 23.4234 6.96394
-27.4566 22.4149 10.5586
-19.906 38.2249 -18.659
-20.1881 38.7657 -18.6135
-19.5558 38.8959 -18.6117
-19.1563 38.3306 -18.5715
-18.7257 38.2412 -18.5506
-18.1539 38.1477 -18.5667
-21.0634 38.0745 -18.5995
-20.9485 38.8552 -18.5917
-21.9893 39.6725 -18.5915
-21.9199 38.7617 -18.5873
-9.82398 43.7308 -18.6974
-9.36097 43.3038 -18.6648
-10.6262 43.5193 -18.7061
-8.70673 43.5397 -18.6223
-8.34354 43.6413 -18.6225
-13.6063 41.6407 -18.6668
-13.2025 41.9253 -18.6782
-13.2411 42.8972 -18.7517
-13.5371 42.8646 -18.7467
-12.9385 42.7833 -18.7412
-10.5016 44.3041 -18.6973
-10.9565 43.9992 -18.6904
-12.4606 43.8934 -18.7444
-13.5203 43.9788 -18.8048
-14.482 41.8521 -18.6744
-13.8532 42.5475 -18.7136
-16.5257 39.4896 -18.6775
-17.5842 39.4082 -18.6391
-16.5379 40.9087 -18.6832
-17.0715 40.1971 -18.683
-16.5919 41.6366 -18.7194
-15.6552 42.1205 -18.7348
-15.3265 42.5963 -18.7066
-17.7628 39.0382 -18.6108
-18.5523 39.0667 -18.6099
-18.9101 38.6641 -18.5965
-4.14747 48.1997 -18.6133
-4.90955 47.9029 -18.6209
-5.30945 47.3661 -18.6202
-6.2267 47.5532 -18.676
-6.32706 46.9554 -18.6394
-7.3454 45.6338 -18.6678
-7.961 45.642 -18.6653
-7.0202 46.8171 -18.6752
-7.79844 46.7074 -18.6547
1.38395 49.0536 -18.4244
-2.60674 49.6636 -18.4688
-2.32648 50.2939 -18.5206
-1.86431 50.6233 -18.5366
-1.02661 50.7534 -18.5362
-0.524512 49.7124 -18.4994
0.399033 49.7693 -18.4782
0.27474 50.2248 -18.4993
0.876288 50.0824 -18.4513
1.06514 49.5497 -18.4462
-4.03312 49.0618 -18.5701
-3.67304 49.8913 -18.5842
-3.1031 49.3383 -18.5726
-8.77267 44.1293 -18.6534
-9.21148 44.3692 -18.68
-9.34618 44.9669 -18.706
-8.66162 45.463 -18.6689
-10.0237 44.5196 -18.7005
1.96422 49.5904 -18.4133
1.66048 50.7087 -18.3922
3.20476 50.298 -18.3086
2.3591 50.176 -18.3717
3.96017 50.1963 -18.322
3.76575 50.8022 -18.3172
4.26966 50.0174 -18.3082
4.91222 50.0418 -18.2444
5.03395 49.383 -18.2388
5.32847 49.8303 -18.2285
5.74408 50.6151 -18.1825
5.966 50.0377 -18.1903
8.09179 48.281 -18.1896
7.66322 49.0496 -18.1881
7.04278 49.8669 -18.1664
6.15932 50.5297 -18.192
9.97097 49.3627 -17.948
10.2589 49.2407 -17.9193
10.828 49.1472 -17.9563
12.5345 48.769 -17.8837
11.295 48.6795 -17.929
8.47984 49.2041 -18.078
9.12614 48.8137 -18.0303
8.38879 48.8503 -18.1013
12.0842 48.9317 -17.9121
11.4625 49.0577 -17.9607
15.7212 49.0211 -17.6112
14.7867 49.0496 -17.6697
12.9529 49.2407 -17.8114
13.3938 49.8669 -17.7624
14.249 49.7815 -17.709
16.4708 50.1678 -17.563
16.8749 50.2451 -17.5528
17.466 50.7249 -17.5097
16.9428 49.5416 -17.544
16.1203 49.5701 -17.5587
15.8237 50.2085 -17.5914
18.1215 52.9208 -17.5613
17.4282 52.2254 -17.608
17.3605 51.7822 -17.5774
26.2322 63.3672 -16.554
26.0504 63.9081 -16.4147
26.3295 63.6438 -16.3045
26.3295 63.6438 -16.3045
26.2038 64.1399 -15.467
26.202 64.1114 -15.2696
25.9678 64.4326 -15.1425
26.1291 64.2009 -14.5626
25.814 64.6888 -14.0682
26.0177 64.3513 -13.5952
26.2396 63.9203 -16.1557
26.3481 63.9203 -15.8188
24.8834 63.2127 -16.9509
24.4072 63.2697 -16.9863
23.9717 63.7536 -16.8862
24.5407 64.1277 -16.6625
25.2318 63.9609 -16.6437
25.6162 64.0341 -16.4766
24.0736 62.8874 -17.0347
23.3326 62.7288 -17.0502
18.9819 55.2752 -17.4091
18.2688 54.6368 -17.474
18.3253 53.8804 -17.4902
22.3572 60.1914 -17.2155
22.5231 60.9844 -17.0784
22.0264 60.0654 -17.2377
21.4204 60.2971 -17.2109
21.3087 59.4554 -17.1993
21.0542 58.817 -17.3158
20.3083 59.3578 -17.4194
20.3592 58.5689 -17.4596
19.9195 58.7926 -17.4724
19.7979 58.1542 -17.4047
19.0002 55.8811 -17.4487
19.4731 56.5764 -17.4382
19.4633 57.406 -17.4446
23.3103 62.0701 -17.0786
23.3526 61.3219 -17.055
26.5324 60.3459 -4.25982
26.363 61.6553 -1.8174
26.4176 60.9193 -1.57908
26.405 61.1917 -2.95337
26.4753 61.4195 -4.37786
26.4467 61.7651 -5.01122
26.3623 62.7126 -5.31901
26.4096 62.2734 -6.03979
26.4621 59.0122 -0.689943
26.4276 59.2846 -0.152405
26.4758 57.5198 0.250829
26.4128 57.3328 1.56442
26.4606 56.2918 1.4423
26.5122 55.6615 1.03252
26.4639 55.3931 1.5689
26.4493 54.8238 1.68345
26.4599 54.6571 1.50091
26.446 54.3521 1.46042
26.4513 54.2586 1.3325
26.4776 59.8864 -1.8598
26.4259 60.102 -1.02496
26.4256 60.1182 -1.24483
26.3973 61.6472 -3.877
26.361 61.9278 -3.18137
26.2673 63.1477 -5.03693
26.1729 63.4852 -5.18684
26.2308 63.4608 -6.1974
25.7832 64.457 -7.58043
26.1098 63.8186 -7.26914
26.0652 63.7902 -5.65032
25.5068 64.9735 -7.43751
25.4876 65.0019 -8.02356
25.6974 64.6604 -8.63733
25.4209 65.1565 -9.10539
25.6531 64.8352 -9.8551
25.7525 64.7092 -10.5513
25.9441 64.3594 -11.7935
25.5898 65.0101 -11.0711
25.4716 65.1686 -10.5659
25.9392 64.4611 -13.1553
25.8665 64.5587 -12.8448
25.7077 64.7986 -12.2659
-17.7535 14.5017 17.1135
-18.0449 13.9528 17.0832
-17.193 15.1646 17.1457
-14.3056 18.7552 17.3932
-12.8142 18.5518 17.5733
-14.7394 18.9422 17.3582
-12.4222 19.3489 17.6118
-15.1915 18.1981 17.3575
-16.4936 17.6044 17.2434
-16.2432 18.3933 17.258
-15.6043 18.3282 17.3432
-17.3608 17.1693 17.1327
-17.7962 15.4858 17.0684
-17.6546 16.8196 17.0923
20.7169 41.6081 17.9039
21.3308 43.4055 17.8666
21.0241 42.8972 17.8844
20.5996 42.8321 17.8914
20.0612 41.8318 17.8768
18.9208 39.1927 17.9908
19.1633 39.9572 18.0105
19.509 40.6281 17.9289
19.2111 41.4089 17.9223
18.1619 39.0341 18.0705
17.1629 38.4404 18.0672
16.049 38.7779 18.1187
17.8262 39.5424 18.0675
17.1837 39.0179 18.0377
26.2311 56.1251 7.4487
26.2405 55.7591 7.49601
25.9869 60.228 8.3678
26.0132 60.1548 7.96041
26.061 59.4473 7.70251
25.9479 61.9766 9.00857
25.9496 61.2202 8.53959
25.9398 60.0857 9.97652
26.228 57.0278 6.69877
26.2141 56.9993 7.39423
26.1808 58.4551 6.4514
26.1551 58.9593 6.72687
25.9045 59.065 10.7655
25.8977 60.0328 10.4676
25.9041 58.9349 11.8193
25.9345 57.7313 11.6496
26.4652 54.4416 4.32762
26.4352 54.4212 3.78294
26.2966 55.3321 6.58106
26.284 55.5273 6.9217
26.3484 55.2061 4.74412
26.329 55.5558 6.0265
26.3562 55.1898 5.43554
26.4226 54.6896 3.41617
26.5417 53.8601 2.82924
26.553 53.5958 2.37903
23.7741 52.0587 17.6776
23.5794 52.1766 17.7001
24.279 52.8435 17.6103
24.2216 53.9862 17.6119
24.7878 53.7788 17.4699
25.0131 52.7947 17.3618
25.2516 53.2664 17.1492
25.3533 51.9652 17.0525
25.4662 50.9526 16.9128
20.3427 44.6294 17.9292
20.2856 45.2435 17.913
20.6559 43.8772 17.9269
20.0678 46.2763 17.8924
21.5149 49.3261 17.698
20.9116 48.2851 17.7456
20.5499 47.8622 17.7983
20.0934 46.992 17.8831
21.2993 50.0093 17.6034
21.5627 50.7575 17.6383
22.4616 50.9933 17.6265
21.259 50.2898 17.5969
23.1742 51.1641 17.5965
25.5313 54.6815 16.6577
25.5005 53.3965 16.7718
25.5702 55.9502 16.4867
24.1346 54.8198 17.5887
22.8936 54.836 17.5927
22.5741 54.1935 17.5671
22.7277 53.7056 17.6199
22.6267 52.2376 17.6187
23.1025 52.0831 17.627
23.1508 56.1983 17.5712
23.6938 55.6371 17.613
23.4386 56.1657 17.623
25.765 57.7394 14.1831
25.7416 57.4588 14.6955
25.7315 56.8245 14.9444
25.8699 57.9671 12.5034
25.8598 57.2799 13.1542
25.8252 57.5971 13.4773
25.6115 57.467 15.9471
25.5505 57.1823 16.372
11.5807 35.0206 18.2974
12.0907 35.1751 18.3236
12.4403 36.3788 18.2652
12.7253 35.899 18.2907
12.3838 37.0091 18.2529
12.9318 37.6109 18.2238
13.9667 36.6838 18.2797
14.3347 36.3788 18.2943
14.6302 37.5865 18.2229
15.9416 37.2409 18.1467
15.3482 38.1314 18.1383
15.8751 38.0704 18.1171
11.0173 32.3368 18.4317
11.1499 33.1745 18.4014
11.0963 35.2036 18.3189
10.6387 34.4066 18.3335
10.8011 35.0694 18.3387
10.8118 33.5283 18.3937
10.4307 34.0528 18.3533
8.13391 31.243 18.4845
7.55374 31.4585 18.4788
6.58344 31.3528 18.4747
6.2808 30.0475 18.4588
5.9334 30.0719 18.4432
8.64239 32.2067 18.4582
9.4199 31.4992 18.4284
9.59605 32.1498 18.3954
10.3604 32.5035 18.4023
-0.210233 28.1729 18.287
-0.922371 27.7296 18.2476
-1.95359 26.831 18.2041
2.73136 28.8113 18.3832
1.84453 28.9089 18.3614
0.669844 28.8316 18.3163
4.92658 30.6208 18.4505
4.47352 31.3812 18.3958
4.1706 30.3687 18.3636
2.90093 30.0637 18.3006
5.46684 31.1413 18.4375
-3.72097 25.9404 18.0921
-3.03623 26.8635 18.14
-4.93929 24.8141 18.1122
-5.84887 24.2936 18.0689
-6.24467 23.6185 18.0412
-7.08822 23.3786 17.9666
-7.79059 23.7568 17.9282
-8.13433 23.6348 17.8911
-8.60976 24.4155 17.8704
-10.2002 22.6955 17.7061
-10.5832 21.4593 17.7219
-9.85331 24.566 17.7572
-9.1156 24.7775 17.8158
-11.1171 22.7321 17.6326
-11.9338 21.3739 17.5903
-12.1423 20.9957 17.6063
-11.7874 20.2109 17.629
-12.2065 20.0239 17.6099
26.458 53.8845 1.62506
26.5175 53.5632 2.01394
-27.8221 33.8576 -7.1683
-27.8421 33.1582 -6.46143
-27.6073 35.2199 -10.0484
-27.6749 35.2077 -9.16388
-27.714 34.9515 -8.76611
-27.7211 34.3009 -8.61587
-27.8011 34.9271 -7.58894
-27.0815 37.4442 -14.2948
-27.2137 36.8261 -13.4676
-27.4934 36.3666 -11.3738
-27.3864 36.3259 -12.329
-27.4221 36.9115 -11.935
-27.4609 37.8955 -11.7532
-27.5872 36.4195 -10.348
-22.6476 38.8796 -18.6001
-23.3464 38.904 -18.5635
-23.9606 39.2822 -18.5478
-23.943 40.8925 -18.6253
-25.2182 41.1568 -18.5766
-26.0036 41.5349 -18.3041
-26.838 41.5837 -15.8627
-25.3166 41.6732 -18.5569
-25.8724 42.6898 -18.4494
-25.5121 42.7792 -18.5491
-26.5984 42.0514 -17.4199
-26.761 40.9412 -16.3551
-26.751 40.4045 -16.3772
-26.4925 43.8568 -17.8005
-26.5847 43.3445 -17.5546
-26.2032 42.95 -18.166
-26.0754 43.6088 -18.3415
-23.6765 39.7254 -18.5764
-23.6572 40.5021 -18.6191
-26.8749 39.6929 -15.7033
-27.1075 38.7983 -14.3071
-27.1256 37.9443 -14.053
-27.0759 39.1764 -14.503
-26.9507 39.6969 -15.305
-27.7605 26.1397 2.67855
-27.7485 27.0018 3.41484
-27.7499 27.0262 2.69427
-27.7563 26.3959 2.82524
-27.8032 28.2949 1.75629
-27.7758 28.5714 2.99289
-27.761 27.811 3.48933
-27.7717 28.3803 2.59108
-27.8338 28.8967 0.602149
-27.8112 28.4656 1.22378
-27.8607 28.6812 -1.13433
-27.8589 28.9617 -0.392156
-27.8795 29.5066 -1.2629
-27.8638 29.6002 -0.848215
-27.898 31.3772 -1.27344
-27.876 31.0681 -0.791455
-27.9014 31.2836 -4.19036
-27.882 30.9136 -4.26158
-27.8985 32.7963 -3.88711
-27.9126 31.9383 -3.10062
-27.8882 32.3043 -4.15915
-27.8856 32.1335 -1.92497
-27.869 33.2274 -4.98253
-27.7225 26.4121 4.83655
-27.7418 26.038 3.57163
-27.7146 26.5016 4.3901
-27.6015 24.0211 6.94434
-27.6225 25.1272 6.7594
-27.6212 24.5619 6.93146
-27.6395 25.7452 6.56916
-27.6757 25.7534 5.49278
-27.4095 22.6263 11.265
-20.8472 15.4085 16.7795
-20.5435 14.8271 16.8263
-20.5311 14.5139 16.8429
-18.8842 14.1886 16.991
-19.8241 14.5993 16.9192
-18.2796 14.6563 17.0815
-24.913 21.6992 16.237
-25.6178 21.378 16.1545
-24.7283 22.789 16.2312
-25.0114 22.9679 16.1888
-26.4193 21.6789 16.0587
-26.7224 23.6633 15.9139
-26.7757 23.2444 15.887
-26.7456 22.6629 15.9333
-26.6074 24.6514 15.8931
-25.8399 24.4399 16.0212
-26.1127 25.2776 16.0015
-26.3825 24.8466 15.9617
-25.5168 23.8666 16.1218
-25.3913 23.5372 16.1507
-26.8475 24.4399 15.7817
-27.0956 26.0624 15.5628
-27.1769 24.9686 15.3423
-26.9263 25.7534 15.7695
-26.8358 25.5867 15.8568
-26.8336 24.7775 15.7882
-27.2732 25.5338 14.9431
-26.6033 21.7765 16.0005
-26.4334 20.9998 16.0413
-26.0449 20.3573 16.1121
-24.4879 22.0327 16.2678
-27.3974 24.7653 11.9728
-27.4129 24.3424 11.8011
-27.352 25.0336 12.7802
-27.4125 23.5779 11.7263
-27.4298 23.8178 11.2537
-27.3143 25.0458 13.4446
-27.2905 25.4403 13.9274
-27.2903 26.6886 14.9457
-27.3005 25.8428 14.5551
-27.3005 26.3755 14.0174
-25.4811 20.0686 16.1637
-22.8389 19.296 16.4669
-22.4107 19.4464 16.5117
-21.2225 19.0439 16.6435
-22.0026 18.808 16.5899
-23.4943 20.6135 16.4275
-22.6594 20.341 16.498
-22.7275 19.7758 16.473
-24.4135 20.5037 16.3207
-24.6088 21.2763 16.3108
-25.6167 21.0852 16.1515
-25.2241 20.3654 16.1938
-20.4582 17.1693 16.7808
-20.87 17.2953 16.758
-20.6452 16.3763 16.7819
-20.9923 16.1161 16.72
-21.1997 17.9378 16.6989
-20.8922 18.4461 16.7011
-27.4779 22.7483 9.47495
-27.4948 23.7121 9.32946
-27.523 23.4518 8.61588
-27.5732 24.3058 8.03131
-27.5736 24.2692 7.77209
-27.4554 22.6995 10.7253
-19.864 39.0667 -18.6178
-19.4277 39.64 -18.6352
-18.9874 39.5831 -18.658
-19.6896 40.1198 -18.6516
-20.0432 40.3394 -18.6612
-20.8702 39.5262 -18.6066
-21.398 39.4042 -18.6055
-22.4024 39.8637 -18.588
-21.2034 40.3394 -18.6334
-21.6043 40.7339 -18.6581
-21.9184 40.6769 -18.6705
-9.41823 43.8243 -18.6918
-13.9429 43.2672 -18.7238
-14.2855 44.0967 -18.696
-11.4207 44.9304 -18.6629
-10.4997 44.8165 -18.7196
-10.0051 44.9182 -18.7185
-11.3767 44.479 -18.6725
-12.1276 44.5318 -18.6945
-12.5686 44.7514 -18.681
-13.4632 44.2919 -18.7886
-14.0916 44.9019 -18.7278
-13.9943 45.398 -18.7105
-14.4417 42.6939 -18.7018
-14.2736 43.1086 -18.7065
-17.2543 39.8352 -18.671
-17.607 40.3272 -18.6945
-16.8942 41.0917 -18.6852
-17.2494 40.7705 -18.6509
-16.6322 42.7752 -18.7313
-17.0884 42.0066 -18.6982
-16.1525 43.2794 -18.7283
-15.3872 43.1086 -18.7013
-4.88654 48.5047 -18.6172
-5.38196 48.6511 -18.633
-5.91794 48.9845 -18.6715
-6.39446 48.9764 -18.6891
-7.25965 48.464 -18.6863
-7.11737 47.5206 -18.6871
-8.645 45.8128 -18.67
-8.79395 46.4959 -18.6563
-8.65614 46.7236 -18.6503
-7.73973 47.9232 -18.677
-2.90794 50.6029 -18.5681
-3.03278 50.1434 -18.5537
-2.96402 51.1885 -18.5927
-2.85078 51.5545 -18.5804
-1.63909 51.4121 -18.4518
-0.137049 51.0421 -18.5899
-0.563605 50.4484 -18.5375
0.961397 51.0868 -18.4737
0.21774 51.2495 -18.578
0.462309 50.9689 -18.5359
1.15583 50.5013 -18.4445
-4.0934 50.3508 -18.6057
-4.33996 49.2692 -18.563
-9.24545 45.829 -18.721
1.65446 51.5057 -18.3754
2.04971 51.6805 -18.3461
2.36313 51.1682 -18.3376
3.16466 50.8672 -18.3382
4.77104 51.221 -18.2128
4.54163 51.4609 -18.2406
5.21907 50.6965 -18.1836
3.30484 51.4447 -18.3274
3.86821 51.8391 -18.2975
5.62099 51.587 -18.1673
7.62879 49.7083 -18.1883
8.53135 49.627 -18.0859
6.70398 50.4728 -18.1494
6.21102 51.8757 -18.1551
6.25887 51.1844 -18.1754
9.71078 49.993 -18.0314
9.36778 49.4074 -18.0253
10.5522 50.0377 -18.0811
10.5931 50.0743 -18.0707
11.1125 49.566 -17.9972
11.7925 49.5782 -17.9247
12.4981 50.0743 -17.9009
11.5406 49.9767 -17.9578
15.425 49.6229 -17.6562
15.1054 49.6067 -17.6873
13.0497 50.4687 -17.8211
13.7622 50.3955 -17.7601
13.3155 50.8306 -17.81
14.8998 50.18 -17.7361
16.5484 50.9445 -17.5871
15.3399 50.9079 -17.6339
15.6693 50.9892 -17.5964
15.3675 50.363 -17.6601
17.1912 53.9902 -17.5465
17.3431 53.2786 -17.5856
17.194 52.754 -17.6166
16.6913 52.1685 -17.6234
26.0504 63.9081 -16.4147
26.2038 64.1399 -15.467
26.202 64.1114 -15.2696
25.9678 64.4326 -15.1425
25.814 64.6888 -14.0682
26.0177 64.3513 -13.5952
26.0901 64.1846 -16.0101
26.0666 64.2862 -15.7408
22.5058 62.9769 -17.0472
23.0527 63.3835 -16.9768
22.9516 63.7088 -16.9155
23.0438 64.0545 -16.7595
24.5407 64.1277 -16.6625
25.2318 63.9609 -16.6437
25.6162 64.0341 -16.4766
22.9034 62.0823 -17.1205
17.4029 55.0434 -17.5431
18.2243 56.2633 -17.5593
17.8754 55.5314 -17.531
21.9629 60.9681 -17.1568
22.5971 61.7366 -17.1489
22.0549 61.4479 -17.1135
21.593 60.5818 -17.217
21.4989 61.5171 -17.1471
21.0466 60.9518 -17.1926
20.906 60.533 -17.2249
20.3841 60.3012 -17.3139
19.4736 58.8211 -17.513
19.2271 59.2358 -17.5328
19.0017 59.8132 -17.4927
19.1991 57.8695 -17.4603
19.4552 58.081 -17.4449
18.7789 56.613 -17.5049
18.7033 57.7109 -17.4977
26.3048 62.7451 -2.90595
26.2996 62.5946 -2.20639
26.2134 62.7695 -1.10556
26.2599 62.0985 -1.00324
26.3644 61.1552 -1.10223
26.387 62.2246 -4.7143
26.3575 62.2043 -3.98685
26.2833 62.9159 -4.09687
26.2442 63.1599 -4.23679
26.3893 59.6872 0.526196
26.3575 61.0413 -0.330201
26.3984 58.8699 0.619788
26.4125 58.3534 0.6086
26.4426 56.5236 2.33591
26.4662 55.7875 2.16838
26.4072 58.3656 1.37064
26.3982 58.02 1.98447
26.4049 57.7353 2.31097
26.4726 55.8689 1.47117
26.468 55.2874 2.01028
26.4516 54.2261 1.81852
26.3031 62.6434 -3.58024
26.1061 63.6316 -4.53061
26.0742 63.717 -3.57566
25.9531 63.9691 -5.12261
26.0433 63.7739 -4.61563
25.5894 64.7905 -6.39458
25.6805 64.5506 -5.49414
25.5068 64.9735 -7.43751
25.3283 65.2175 -6.566
25.4876 65.0019 -8.02356
25.36 65.1686 -8.57321
25.4209 65.1565 -9.10539
25.4173 65.1605 -9.75196
25.6531 64.8352 -9.8551
25.4716 65.1686 -10.5659
25.322 65.3232 -10.0917
25.6942 64.8067 -11.8435
25.5898 65.0101 -11.0711
25.36 65.1686 -8.57321
25.6218 64.945 -13.3622
25.5628 65.0019 -12.9541
25.7077 64.7986 -12.2659
-14.5198 19.5196 17.385
-13.3319 20.6664 17.4952
-13.1457 20.1499 17.5134
-13.3838 19.5115 17.4815
-13.1315 19.1496 17.5076
-12.6994 19.9588 17.5417
-15.1519 19.3245 17.2922
-15.739 18.5437 17.3172
-16.9407 17.6085 17.1719
-16.5385 18.7755 17.2044
-15.91 18.8446 17.2508
-18.2496 18.3282 16.992
-17.3682 18.2794 17.097
-17.8503 17.9256 17.0608
-18.603 17.4336 16.9593
-18.252 16.7423 16.9873
-18.2951 15.9616 17.017
-18.899 15.7989 16.9644
-18.9152 14.9572 16.9925
20.2849 42.4865 17.9037
19.9344 44.0073 17.942
19.6052 43.6047 17.9493
19.4068 42.9785 17.9253
19.2746 42.1408 17.9094
18.2387 39.5709 18.0317
18.7503 40.1442 18.0194
18.7283 42.092 17.9054
18.7763 41.3438 17.9638
18.643 41.0551 17.9848
15.4099 38.6438 18.1245
15.6314 39.3838 18.0896
18.1176 40.0629 18.0639
17.5714 39.7051 18.0652
17.5717 40.7705 18.0814
16.7611 40.0141 18.0563
16.2774 39.6359 18.0532
26.2647 56.2023 6.5964
26.0448 60.4435 7.19291
26.0147 61.1104 7.67888
25.8244 61.9766 11.0796
25.8986 63.1192 7.8331
25.8768 63.1192 8.77676
25.8474 63.1924 9.44171
25.8579 62.7654 9.68423
25.94 62.1351 8.44752
25.9304 62.0742 9.26113
25.9335 60.8868 9.88069
25.9838 61.8261 7.91796
25.8375 60.5655 10.9072
25.8511 61.6716 10.7278
26.285 57.4832 5.70207
26.2226 57.9753 6.14781
26.1968 58.3616 6.07845
26.201 58.3412 5.21763
26.1324 59.2074 5.26746
26.0919 60.2687 6.48987
26.0843 59.8824 5.7753
25.8486 60.045 11.1196
25.8143 60.1101 12.036
25.8638 59.0691 12.2772
25.8666 58.7479 12.3768
26.3814 55.1329 3.854
26.3092 56.1454 6.07611
26.3123 56.2999 4.85037
26.3128 56.2593 4.33969
26.3251 56.6008 5.36373
26.3876 55.3362 3.44607
26.5019 55.1939 2.81582
26.5211 54.4538 2.49619
24.6189 55.1085 17.4938
24.8731 55.2345 17.4244
25.0749 53.9089 17.3141
25.3291 54.3399 17.0464
19.5594 45.1947 17.9241
19.1399 44.849 17.9513
19.4123 46.622 17.8761
19.8487 46.7806 17.898
21.1637 49.2366 17.727
20.1473 48.6674 17.812
20.0585 48.9723 17.788
20.6865 49.1228 17.7341
19.644 47.9232 17.9372
19.864 47.5491 17.9177
20.2653 50.2492 17.698
20.6366 49.7083 17.7034
21.057 50.9811 17.6624
21.3137 51.1397 17.6424
22.0809 51.5423 17.6131
22.6876 51.5707 17.5902
25.4392 55.4419 16.8751
25.4884 56.1942 16.7375
25.4321 57.1173 16.7646
24.3712 55.8526 17.5342
24.7292 56.0478 17.4691
22.031 55.877 17.5431
21.9953 54.7547 17.5745
21.8466 53.9658 17.5651
21.9793 53.2542 17.642
21.816 52.3352 17.6221
21.9526 52.0424 17.6258
22.436 57.4751 17.5734
22.936 57.6459 17.5877
24.0655 57.3002 17.6115
23.4691 57.5849 17.6624
25.8028 58.5689 13.8115
25.7866 58.9878 14.1736
25.7556 58.9471 14.5431
25.0966 57.4588 17.2762
25.6565 57.8899 15.4931
25.8474 58.3656 13.0305
25.8308 58.8333 13.4389
25.6292 58.7357 16.0448
25.5925 58.6625 16.3114
25.5429 58.7438 16.5346
11.1121 36.1714 18.3032
11.8248 35.598 18.3071
12.0228 36.4398 18.2809
11.3239 36.5821 18.2781
11.5467 37.2612 18.2509
12.5236 38.0216 18.2081
11.8863 37.5418 18.2486
12.2116 38.4404 18.1787
13.4493 37.9159 18.2178
13.7365 37.7898 18.2372
12.9974 38.7657 18.1654
14.4858 38.4526 18.2012
10.3536 33.2192 18.4044
10.5733 36.1836 18.3008
9.8143 34.248 18.3072
9.38535 34.2928 18.2871
10.4229 35.7851 18.296
9.70681 33.6543 18.3298
7.9982 32.3572 18.4669
7.41876 32.1172 18.4705
7.28296 33.4795 18.4135
7.80943 33.2111 18.4332
6.86051 32.6581 18.4375
5.94719 31.7065 18.4443
6.30289 32.345 18.4424
8.44878 33.1379 18.4097
8.92209 32.963 18.374
9.19049 32.284 18.4006
9.74225 32.7963 18.3554
-0.457263 28.2745 18.2687
-1.81432 27.4775 18.2287
-1.80692 28.4331 18.2251
1.96259 29.9783 18.2867
-0.367312 28.7462 18.2611
-0.262021 29.1773 18.2447
0.171489 29.2505 18.2634
-0.00304142 29.9255 18.19
0.782888 29.6408 18.25
5.42948 32.9915 18.4002
4.49835 32.6906 18.3718
3.36367 30.7306 18.317
4.09106 31.9302 18.3761
3.00486 32.166 18.305
3.02449 31.7269 18.3124
2.30396 30.389 18.2851
-4.16736 26.3511 18.0583
-4.61247 26.9042 18.0323
-3.29558 27.7988 18.1391
-2.66134 28.2705 18.1864
-4.51392 25.8754 18.0574
-5.34898 26.0665 18.01
-6.17883 25.5379 17.999
-6.46 24.4928 18.0307
-7.19726 24.5985 17.9652
-7.99461 24.6148 17.9088
-8.82693 25.3223 17.8198
-8.30803 25.2166 17.8663
-10.3355 24.6677 17.7101
-9.75368 25.2898 17.7452
-11.9349 22.8744 17.5594
-12.2285 24.7368 17.5638
-11.6236 24.7531 17.608
-10.7136 24.7205 17.6783
-12.5574 21.5813 17.5248
-12.3906 22.0123 17.5177
-12.5765 20.9957 17.5497
-12.2894 20.951 17.5976
-27.8191 35.3459 -7.0633
-27.8565 34.0122 -5.56078
-27.8573 34.9027 -5.90949
-27.6199 36.8302 -9.91147
-27.7372 35.6346 -8.28227
-27.699 35.6916 -8.93233
-27.6997 36.3422 -8.73795
-27.6612 36.5862 -9.23603
-27.8178 35.3581 -7.3217
-27.302 37.7573 -12.9608
-27.3714 37.9647 -12.388
-27.5142 38.4038 -11.2764
-27.559 37.5174 -10.7437
-27.6311 37.4157 -9.7274
-27.574 38.0704 -10.515
-22.9517 39.8108 -18.6346
-22.9828 39.1968 -18.61
-24.476 42.1612 -18.5873
-23.6224 41.4333 -18.6312
-26.891 41.2584 -15.6019
-26.9221 41.8724 -15.4754
-26.7814 42.1368 -16.2076
-25.3345 42.7955 -18.5636
-25.6956 43.7064 -18.5749
-25.8486 44.1618 -18.5328
-26.6905 42.3685 -16.931
-26.6367 42.9053 -17.2397
-26.4212 44.7352 -17.9598
-26.5849 46.2113 -17.7351
-26.6495 44.8531 -17.3851
-26.0298 44.5481 -18.3896
-23.3313 40.3516 -18.6225
-27.1729 39.2618 -13.836
-27.1743 38.2127 -13.7188
-27.1207 40.3191 -14.1401
-27.2418 39.6319 -13.3326
-27.047 39.9491 -14.5948
-27.7361 27.4287 4.20668
-27.8302 29.1203 1.22018
-27.7988 28.673 2.11744
-27.8018 29.8319 2.91272
-27.7606 28.429 3.30728
-27.8109 28.9821 2.41181
-27.7575 28.6812 3.75711
-27.7651 27.9533 3.74997
-27.8549 29.3887 0.14025
-27.8707 30.3768 0.05419
-27.8597 30.8485 0.329119
-27.856 30.9421 1.15081
-27.8547 30.2752 1.32828
-27.8638 30.9624 -0.344457
-27.8726 29.7303 -0.353954
-27.903 31.5845 -0.755934
-27.9054 32.1498 0.00927866
-27.8923 33.5933 -4.09677
-27.8725 33.6218 -4.61619
-27.8936 33.264 -2.02162
-27.902 32.7394 -2.91518
-27.8941 34.1098 -2.62028
-27.8961 34.0691 -3.78058
-27.8858 33.0037 -1.53386
-27.8737 34.8254 -4.88468
-27.6823 26.892 5.70937
-27.5879 25.5785 7.74393
-27.5645 25.3101 8.30694
-27.5679 24.7653 7.8355
-27.6201 26.0462 7.40362
-27.636 26.9123 7.21032
-27.6582 26.6439 6.1459
-27.6692 26.0462 6.00674
-27.4562 23.2241 10.6142
-20.3754 15.2825 16.8556
-19.6552 15.62 16.9006
-24.3951 22.7321 16.258
-24.7093 23.7243 16.1723
-23.8259 24.6514 16.3282
-26.8336 24.7775 15.7882
-26.8358 25.5867 15.8568
-26.5458 25.7371 15.9758
-25.547 25.1556 16.0701
-25.2735 24.4887 16.0937
-25.767 25.9282 16.0556
-26.3566 25.729 16.0025
-25.0417 23.6429 16.1602
-27.1046 27.7174 15.5425
-27.2254 25.8103 15.2569
-26.9263 25.7534 15.7695
-24.0432 22.0286 16.3007
-27.4234 26.2495 11.9265
-27.4324 25.0662 11.3007
-27.4118 26.587 12.0696
-27.3517 25.9974 13.1358
-27.4519 24.5823 10.8002
-27.4622 23.8219 10.8347
-27.3292 25.9608 13.4465
-27.3282 27.2254 14.4402
-27.3226 28.8642 14.7019
-27.2829 28.9902 15.01
-27.2195 28.8926 15.2971
-27.217 27.2986 15.2787
-27.3145 27.4206 13.8358
-27.3357 26.9977 13.3345
-21.7448 20.4549 16.6008
-21.5514 19.4993 16.6045
-20.6535 19.3855 16.6976
-23.9797 21.2641 16.3557
-23.482 21.5081 16.4047
-22.3194 21.6057 16.5512
-21.7229 20.9754 16.6022
-19.8385 17.9256 16.8177
-20.3787 18.2103 16.7629
-20.154 16.7911 16.7868
-19.9287 17.2343 16.843
-19.3798 17.5393 16.8626
-19.9196 16.1283 16.8741
-20.5922 18.377 16.7301
-20.2424 19.1903 16.7504
-27.4725 23.4356 9.8616
-27.4675 24.0821 9.94968
-27.5146 24.6636 9.24329
-27.5219 23.9479 8.71466
-27.5618 24.5091 8.56545
-19.0814 39.9775 -18.6505
-18.4872 40.0751 -18.6668
-19.1459 40.5427 -18.6345
-19.0905 41.1771 -18.6816
-19.4731 41.1974 -18.7067
-20.1361 40.9047 -18.6907
-21.1428 39.9206 -18.6101
-22.8289 40.6729 -18.666
-20.1072 41.7627 -18.7146
-21.2066 40.8762 -18.6527
-21.8803 41.5105 -18.6919
-21.4812 42.1937 -18.6733
-22.7093 41.4861 -18.6828
-14.8058 43.682 -18.6878
-15.4561 43.8772 -18.7016
-15.4472 44.9263 -18.6867
-14.7163 44.9385 -18.6885
-11.6361 45.6786 -18.6734
-10.9586 45.3167 -18.7128
-12.2759 45.1459 -18.6769
-10.6893 45.0401 -18.7055
-9.79403 46.6667 -18.7244
-10.4111 45.3533 -18.7064
-13.4671 45.1499 -18.7154
-13.1445 45.4102 -18.7098
-12.6996 45.2557 -18.6946
-14.3831 45.3695 -18.701
-13.627 45.5403 -18.7051
-13.556 46.4552 -18.7503
-18.2079 40.8233 -18.6368
-17.8784 41.0592 -18.6278
-17.6426 40.9047 -18.6291
-17.3712 42.027 -18.6958
-17.8156 41.6163 -18.6786
-16.8084 43.8284 -18.7322
-17.1639 42.9378 -18.7195
-16.3076 44.0317 -18.7371
-4.86306 49.261 -18.5865
-5.89063 49.9035 -18.6514
-6.65665 49.9279 -18.6877
-6.8961 49.074 -18.6988
-7.41873 49.074 -18.6953
-7.90018 48.8422 -18.6991
-9.05495 47.3824 -18.6866
-9.34582 47.2563 -18.7184
-9.26518 46.7643 -18.7
-8.54034 47.4027 -18.6564
-8.35022 48.6348 -18.7114
-8.72938 48.0208 -18.6723
-3.44538 51.0665 -18.5912
-4.05057 50.9933 -18.5837
-4.5575 51.4975 -18.6013
-3.58958 51.9204 -18.602
-2.71708 52.1482 -18.5798
-1.78558 52.2661 -18.4959
-0.607066 51.4935 -18.4955
-0.912257 51.7903 -18.459
-1.04751 52.3271 -18.4835
-0.087894 51.9652 -18.4667
1.36031 51.5585 -18.398
0.55447 52.0628 -18.4477
-4.97813 50.1353 -18.605
1.68561 52.1156 -18.3321
2.67672 51.6887 -18.3522
2.38039 52.0384 -18.3348
4.77761 51.8147 -18.2311
4.53962 51.8228 -18.2576
5.20044 51.892 -18.1995
2.95626 52.2701 -18.3454
3.31589 52.7988 -18.3526
3.72282 52.815 -18.3446
4.542 52.3962 -18.2529
4.1524 52.9818 -18.3206
6.19285 52.4572 -18.144
5.83468 52.445 -18.1522
8.07857 50.6843 -18.0905
7.06497 51.1356 -18.1435
8.00844 51.3552 -18.0646
8.58824 50.6436 -18.0805
9.07197 50.0702 -18.0773
7.68782 52.5507 -18.0247
7.00398 51.5138 -18.1204
9.5317 50.7819 -18.0355
10.2509 50.4891 -18.0553
10.4726 50.9852 -18.0061
10.7341 51.2983 -17.9488
10.9021 51.0258 -17.9535
11.2701 50.5867 -17.9728
11.6763 50.9567 -17.9402
12.0699 50.9445 -17.9064
14.8298 50.6639 -17.7673
11.9628 51.1885 -17.8962
12.6448 51.2007 -17.8066
13.1773 51.2129 -17.8037
13.9342 50.912 -17.8325
13.6404 51.3105 -17.8336
16.5468 51.5504 -17.6165
15.559 51.6317 -17.6341
15.3559 51.6643 -17.6334
14.9122 51.6277 -17.6802
14.648 51.156 -17.7638
16.3732 54.4578 -17.568
17.1428 54.9133 -17.5586
16.5147 53.6446 -17.578
16.529 52.6686 -17.6177
15.7012 52.4897 -17.6403
16.3724 52.0384 -17.6166
25.7971 64.2456 -16.2002
25.6241 64.8189 -14.7044
25.3689 65.0751 -14.0942
25.4794 65.0182 -13.7062
25.6295 64.5384 -15.8344
21.1732 62.619 -17.1667
21.1748 63.4974 -17.0749
22.1964 63.5502 -16.9931
22.0336 62.2368 -17.1503
22.4149 63.7983 -16.9293
23.0438 64.0545 -16.7595
21.3629 63.8349 -16.9826
24.5831 64.4326 -16.3281
24.3588 64.3757 -16.4267
23.7124 64.2781 -16.5816
25.1728 64.3106 -16.4054
21.693 62.0416 -17.168
17.3032 55.7469 -17.6044
16.672 55.3443 -17.6092
17.8669 56.4422 -17.5868
21.01 62.1961 -17.1866
20.6173 61.5089 -17.1664
20.6018 61.2934 -17.1684
20.7185 60.7892 -17.2223
20.1873 60.9559 -17.246
19.0515 58.6096 -17.5692
18.3871 59.4066 -17.5665
19.2289 60.5899 -17.3623
18.2983 60.4354 -17.4601
16.7904 59.5937 -17.6623
17.6216 59.2358 -17.6382
18.7261 57.9834 -17.5048
18.3739 58.0484 -17.5013
17.7743 57.6703 -17.5322
26.2437 63.1558 -3.12593
26.2299 63.1111 -2.25534
26.1898 63.0867 -1.27747
26.1852 62.9566 -0.172115
26.1533 63.1802 -0.422926
26.308 61.7204 -0.305323
26.1517 63.5014 -3.10683
26.3719 60.1508 0.280402
26.3414 60.7566 1.0109
26.4074 59.9271 1.58511
26.4236 59.4554 1.69278
26.4134 59.2806 1.06455
26.2591 62.1595 -0.0104103
26.2994 61.1308 0.437348
26.4123 58.8577 1.23192
26.4119 56.06 2.88589
26.4184 56.7309 2.62995
26.4014 58.6706 2.47365
26.3877 58.0688 2.85129
26.3944 57.1376 2.77047
26.0431 63.7576 -2.77574
25.7362 64.4286 -3.0402
25.6912 64.518 -3.62773
25.7053 64.4855 -3.74075
25.5457 64.7783 -4.65384
25.5894 64.7905 -6.39458
25.5223 64.8921 -5.92428
25.4198 65.0426 -5.47423
25.2908 65.2052 -4.6276
25.1862 65.3842 -6.79204
25.2367 65.315 -7.56134
25.3283 65.2175 -6.566
25.203 65.315 -8.4579
25.1564 65.4126 -9.53919
25.4173 65.1605 -9.75196
25.1846 65.4492 -10.5405
24.8988 65.5184 -9.70897
25.6942 64.8067 -11.8435
25.5288 65.0304 -11.7215
25.2749 65.3313 -11.2339
25.403 65.1605 -12.6329
25.2571 65.254 -13.0126
25.4169 65.1199 -13.4981
25.433 65.1524 -12.1222
-14.5421 21.1747 17.3852
-14.042 21.2234 17.4104
-14.9859 20.032 17.3384
-12.8432 20.8656 17.5239
-13.4964 21.4268 17.473
-15.5768 19.3936 17.2437
-15.7664 20.1825 17.2578
-17.9177 18.9504 17.0057
-16.6109 19.357 17.197
-16.2607 19.9303 17.2104
-18.4409 19.1171 16.9483
-19.0327 19.1862 16.8959
-18.8277 18.5275 16.9408
-19.3498 18.3201 16.875
-18.8577 16.661 16.9285
-18.8215 17.2099 16.9348
-19.2901 16.5959 16.9121
19.4159 44.2147 17.9565
18.7499 43.4014 17.9299
18.3339 42.8728 17.9301
18.0447 40.9738 18.058
18.5382 41.7423 17.9658
18.0604 42.4661 17.9404
14.8937 39.1155 18.0989
15.2092 39.6522 18.0959
15.035 40.4289 18.1405
16.0783 40.1036 18.0879
16.7333 41.169 18.0718
17.6987 41.1568 18.061
17.2247 41.7871 18.0195
16.0593 41.0429 18.0843
26.0558 60.6347 7.03198
26.0441 61.3097 6.97998
26.0172 61.4886 7.28705
25.8243 62.3181 10.5705
25.7474 62.5296 11.9454
25.8116 61.3829 12.0096
25.82 61.0006 11.4598
25.8062 63.5909 7.80204
25.8173 63.4811 8.78439
25.9529 62.4076 7.12099
25.9656 62.9809 6.21952
25.9293 63.2331 6.5757
25.7118 63.1924 12.1126
25.7151 63.656 9.92412
25.7026 63.6112 10.7006
25.7566 63.3591 10.7762
25.8896 62.1026 9.86175
26.258 57.4954 4.86046
26.1883 58.9878 4.64179
26.2507 58.1786 4.26393
26.1413 59.8824 4.47851
26.0989 60.0816 5.08371
26.036 61.9684 6.04014
26.0691 61.1145 5.95927
26.1004 61.0047 5.47565
25.8399 59.1708 12.8305
25.7964 60.1589 13.2011
26.2876 56.5032 3.67401
26.2989 56.8001 4.90477
26.3286 56.06 3.38429
26.3613 56.0641 3.15144
25.063 55.7591 17.3246
25.1926 54.8889 17.2178
18.598 46.0933 17.9065
18.2571 44.8572 17.9296
18.1727 47.1791 17.8594
18.988 47.6345 17.86
18.4953 46.0527 17.9044
19.5051 48.8544 17.8717
19.7235 49.257 17.8229
19.9165 49.6961 17.805
19.111 47.7809 17.8733
19.2023 48.4396 17.8789
19.5936 50.2004 17.7437
19.583 50.8916 17.762
20.4196 50.7737 17.6975
20.4314 51.77 17.6816
21.4374 51.6561 17.6257
25.3287 56.1535 17.0587
25.4683 58.7926 16.7316
25.2855 57.7557 17.0491
25.2284 56.7513 17.1633
24.8243 57.4344 17.4246
24.9687 56.7391 17.3784
24.9794 56.4422 17.3709
21.9142 57.1945 17.5576
21.4097 56.8814 17.5501
21.4303 56.308 17.5491
21.3072 55.6046 17.5643
21.4455 55.2223 17.5634
21.4227 54.0919 17.5705
21.1819 54.5839 17.5802
21.4789 53.1607 17.6399
21.0257 53.242 17.6423
21.1112 53.6324 17.6076
21.1672 52.262 17.6608
22.8845 58.7519 17.5616
22.3171 58.6015 17.5655
23.3303 58.447 17.6308
24.0706 58.5283 17.5692
23.703 57.7638 17.6495
23.4661 58.7641 17.6199
25.782 59.7482 13.7731
25.7227 60.4151 13.9274
25.6764 60.1508 14.8434
25.6375 59.3375 15.6199
25.6624 58.9227 15.3691
25.1556 58.8251 17.2022
25.0052 58.1054 17.3331
25.6044 59.1423 16.1706
25.5705 59.1098 16.4011
10.144 36.7529 18.2252
10.5004 37.2937 18.2325
11.6634 37.8833 18.231
11.7633 38.3388 18.2013
11.7983 39.0016 18.2053
12.4346 39.0341 18.2018
14.0438 39.1358 18.1267
12.6398 39.64 18.1896
13.4451 39.2334 18.1444
9.84625 36.1877 18.2633
9.17714 33.7845 18.3246
8.40539 34.4595 18.3553
9.4017 35.2199 18.3037
9.00618 35.9681 18.2583
7.62431 34.5001 18.3781
8.07043 34.0772 18.3956
6.86588 33.8088 18.3829
8.36813 33.7845 18.3913
6.27265 33.3981 18.3853
-2.99385 29.2708 18.135
-1.66382 29.161 18.2051
1.72762 31.2348 18.2687
1.15329 31.0559 18.2353
1.06781 30.1166 18.2361
-0.611617 30.0963 18.1673
0.00289073 30.5924 18.1678
0.651285 30.511 18.204
4.74574 33.4632 18.3438
5.83548 34.0935 18.3202
5.37339 34.0325 18.3076
4.33059 32.898 18.3587
3.75891 33.2233 18.3123
2.93883 33.1948 18.2685
2.49135 32.0196 18.3057
1.98451 32.04 18.2934
-5.65309 26.3471 17.9755
-4.64333 27.3921 18.0392
-4.42808 28.2461 18.0782
-3.77064 28.3599 18.1061
-7.1074 25.1678 17.9522
-6.64614 26.2291 17.9161
-6.29711 26.6927 17.9271
-7.65826 25.2776 17.9156
-9.26639 25.7778 17.7554
-8.88073 26.4487 17.7605
-7.68714 26.4284 17.8377
-10.0427 25.9974 17.6857
-13.0304 22.6711 17.4124
-12.7095 23.6633 17.4906
-12.0128 25.4647 17.5619
-12.7599 25.1922 17.4954
-12.7765 24.2976 17.4964
-11.4161 26.2332 17.5612
-10.4657 26.7008 17.6094
-12.8863 21.9025 17.4857
-27.8205 35.8054 -6.67453
-27.854 35.72 -5.71499
-27.6998 37.7614 -8.60758
-27.688 36.9359 -8.89501
-27.7711 36.7936 -7.6105
-27.3186 38.9935 -12.824
-27.2486 38.8023 -13.2965
-27.4075 38.6031 -12.1853
-27.5116 38.9203 -11.3288
-27.3803 39.5262 -12.3743
-27.6757 38.4364 -9.11068
-27.6363 37.9281 -9.86022
-27.627 38.7779 -9.98803
-24.7118 43.2143 -18.5914
-23.2518 43.4624 -18.669
-23.1067 42.2669 -18.672
-22.963 41.3398 -18.6881
-26.9656 43.007 -15.2012
-27.0234 42.8036 -14.7569
-27.0238 41.5553 -14.7446
-26.8688 42.4865 -15.7826
-26.7299 43.0273 -16.6513
-25.4336 43.6494 -18.6211
-25.5158 44.3895 -18.6295
-25.7051 45.5647 -18.5937
-25.9785 45.6379 -18.4476
-26.7449 43.499 -16.6209
-26.7152 44.3001 -16.9356
-26.2541 46.4268 -18.1882
-26.4357 46.3129 -17.9702
-26.1824 45.463 -18.258
-26.5079 47.0896 -17.9328
-26.5808 46.7887 -17.7635
-26.6462 46.4552 -17.4961
-26.6907 45.3248 -17.1116
-27.169 40.9494 -13.8073
-27.2323 40.4248 -13.4156
-27.7211 27.2579 4.78182
-27.7445 28.4616 4.72255
-27.7405 28.3233 4.45111
-27.8257 29.7303 1.785
-27.7991 29.3196 1.99941
-27.7704 29.5758 3.67422
-27.7954 30.4012 3.38734
-27.8074 30.1085 2.58316
-27.8697 31.243 0.113615
-27.893 31.6415 1.23698
-27.8513 31.6577 1.89616
-27.8958 31.6374 0.599691
-27.8265 30.0556 1.77032
-27.8796 32.2392 0.911024
-27.9099 33.1135 0.146471
-27.9074 33.0444 -0.681227
-27.8905 34.74 -4.42459
-27.9007 33.5974 -1.62837
-27.8877 33.9105 -2.04383
-27.8971 34.0691 -1.41767
-27.8955 34.8132 -2.63883
-27.9106 35.3703 -3.34974
-27.9012 36.6106 -3.87406
-27.8936 34.8173 -2.99518
-27.8993 33.882 -0.505882
-27.8842 35.8868 -4.42519
-27.7321 27.9126 5.07852
-27.5654 26.3999 8.3887
-27.5518 26.1397 8.8149
-27.518 24.8506 9.24706
-27.599 26.9448 7.99588
-27.6277 27.7012 7.39107
-27.6571 28.3599 6.47688
-27.6847 28.5307 6.07266
-23.9353 23.2038 16.3052
-24.0522 24.0252 16.2804
-24.9282 24.3993 16.1548
-22.7147 25.5867 16.4487
-23.0191 26.0584 16.398
-24.1339 25.0621 16.299
-22.5548 24.3546 16.4723
-23.5203 23.8463 16.3473
-26.7239 26.5016 15.8954
-26.9524 26.9204 15.7179
-27.1046 27.7174 15.5425
-26.396 26.7862 15.9768
-24.8725 26.2088 16.1864
-24.5482 24.875 16.2322
-25.6766 26.6724 16.075
-26.9798 28.2705 15.6925
-26.8634 28.9699 15.7866
-26.9908 30.0759 15.6551
-27.0983 29.9092 15.5079
-27.1438 29.836 15.4311
-23.2714 22.8459 16.4058
-27.4703 27.0709 10.8969
-27.4811 26.0299 10.9329
-27.4222 27.4165 11.861
-27.4913 25.8062 10.5423
-27.3962 27.4613 12.6825
-27.4706 24.135 10.3091
-27.4626 24.7815 10.4057
-27.3276 28.6568 14.2119
-27.3116 28.0021 13.8675
-27.3331 28.9211 13.5537
-27.3388 29.9417 14.0565
-27.3606 31.6415 14.157
-27.3083 29.836 14.8033
-27.2677 30.7672 15.0636
-27.4062 28.4291 12.8011
-27.3227 28.4616 13.5871
-20.6865 20.0889 16.716
-21.3646 21.6098 16.6551
-19.6247 20.2923 16.8382
-22.4556 22.8419 16.5012
-19.6509 19.0479 16.8151
-19.8133 16.848 16.8493
-19.475 19.3936 16.8338
-27.4716 24.8344 9.84773
-18.6216 40.6932 -18.6033
-18.6258 41.5593 -18.6481
-18.8128 41.8928 -18.681
-19.4624 42.824 -18.7195
-19.0864 42.1856 -18.71
-21.0698 41.844 -18.6722
-20.7297 42.7264 -18.676
-21.7865 41.9782 -18.6762
-21.3341 42.9134 -18.6593
-22.4671 42.4133 -18.6453
-14.7493 45.7436 -18.7094
-15.4509 45.8697 -18.7331
-16.0773 44.7555 -18.7231
-11.6913 46.622 -18.7459
-11.1146 45.8778 -18.7472
-12.1502 46.2926 -18.6766
-12.0311 46.8334 -18.7258
-10.7399 45.4996 -18.7115
-12.2691 45.463 -18.6844
-9.75257 48.0493 -18.7495
-9.86243 47.3417 -18.7316
-10.8488 46.4756 -18.7021
-10.6041 46.0283 -18.6885
-13.3668 45.9957 -18.7575
-12.8501 45.9185 -18.7727
-12.8482 46.2967 -18.7611
-13.067 46.6545 -18.7393
-12.9591 47.4271 -18.7688
-13.4204 48.1306 -18.8006
-13.8465 47.362 -18.789
-18.3537 41.2625 -18.6431
-17.8106 42.7833 -18.6869
-18.2067 42.1734 -18.6684
-16.6444 44.6945 -18.737
-17.5518 43.9422 -18.7185
-5.38223 50.2451 -18.6153
-5.26525 50.7819 -18.619
-6.433 50.3467 -18.6947
-7.10988 49.7693 -18.6854
-8.15068 49.2854 -18.6851
-7.70146 50.5826 -18.6876
-9.25413 48.8829 -18.7251
-8.73624 49.5619 -18.7041
-4.93065 51.0909 -18.613
-3.90856 52.8598 -18.6007
-4.68709 52.6646 -18.5964
-3.17634 52.4979 -18.5946
-3.16474 53.1932 -18.5874
-2.50365 53.1607 -18.547
-2.08247 52.9208 -18.5109
-1.03938 53.1729 -18.4779
-1.49325 53.3518 -18.4795
-1.78777 53.6161 -18.4898
-0.487615 52.4572 -18.4892
-0.377844 53.1159 -18.4785
-0.0152954 52.6036 -18.4825
0.605334 52.5589 -18.4595
1.67976 52.7703 -18.3724
1.09711 52.5914 -18.4222
2.10495 52.6321 -18.3701
2.61745 52.7215 -18.3623
4.95131 52.4572 -18.2063
4.10794 54.4782 -18.2701
3.31096 54.3806 -18.3049
4.27689 54.5798 -18.2547
4.13561 53.5592 -18.2964
5.01167 53.1322 -18.2332
7.04342 53.0468 -18.1626
5.97038 53.1078 -18.2025
6.56744 53.2908 -18.2156
6.69822 53.0062 -18.1843
9.34075 51.038 -18.0291
8.23218 51.1926 -18.0662
8.48306 52.1197 -17.9568
7.93411 52.5995 -18.0157
7.69072 53.1322 -18.1234
10.0697 51.038 -18.014
9.97938 51.6073 -17.9262
10.6086 52.1441 -17.9044
11.2584 52.1969 -17.8837
11.4886 51.7944 -17.8805
14.0184 51.1966 -17.8411
12.0958 51.7293 -17.8031
12.8163 51.7334 -17.7418
13.7887 51.8716 -17.7833
14.5549 51.9408 -17.7023
15.1313 52.4165 -17.6858
15.9037 55.1979 -17.6108
16.3017 53.6649 -17.5892
15.8006 53.978 -17.6005
15.5053 54.531 -17.6255
15.668 53.5388 -17.6041
25.1891 64.5587 -16.0547
25.3921 64.8555 -15.189
25.1106 65.0629 -14.6698
25.2314 65.1971 -13.6767
25.1417 64.7254 -15.7019
20.6655 62.3913 -17.1991
20.0694 63.107 -17.1605
20.052 63.3998 -17.1401
22.8518 64.2578 -16.6143
22.4536 64.3432 -16.5449
21.5468 64.2374 -16.6976
21.3629 63.8349 -16.9826
19.7685 63.7495 -17.0792
20.5972 64.1033 -16.8669
24.4021 64.5831 -16.0776
23.5677 64.4692 -16.3533
16.7221 55.6493 -17.6302
16.8326 56.2104 -17.6442
16.9563 56.8123 -17.627
20.5811 62.0294 -17.2013
