VERSION .7
FIELDS x y z
SIZE 4 4 4
TYPE F F F
COUNT 1 1 1
WIDTH 1937
HEIGHT 1
VIEWPOINT 0 0 0 1 0 0 0
POINTS 1937
DATA ascii
6.61496 96.1371 -17.8845
4.19814 96.1981 -17.7932
5.3493 96.3201 -17.6628
3.03457 96.2652 -17.7172
1.69727 96.1493 -17.8356
13.5797 96.686 -17.2246
11.7875 96.6799 -17.1607
9.97569 97.8815 -13.6512
10.7263 97.8632 -13.8594
12.9868 98.0157 -13.348
11.1967 97.9608 -12.9349
12.9843 97.2838 -15.6685
12.1171 96.8324 -16.8628
14.1661 96.8629 -16.8744
12.7492 97.9181 -13.8785
12.6798 97.601 -14.8239
10.8176 97.9791 -12.2634
22.8848 98.9612 1.25142
22.3558 98.9978 1.86132
23.4923 98.9795 2.21916
21.3413 98.9307 1.10984
23.0911 98.8392 3.47198
24.6275 98.827 4.00752
18.5218 98.8758 1.98817
17.4962 98.8026 2.72457
18.7729 98.7782 3.20692
19.6098 98.7904 3.62598
21.039 98.7965 3.67975
16.1184 98.8575 2.07974
15.7665 98.7904 -0.0478712
13.4278 98.7965 0.378186
14.5512 98.8453 1.33088
16.7518 98.8697 1.40696
17.673 98.7721 -0.43462
15.6909 98.7416 -0.734044
23.1706 98.827 4.09359
16.1027 98.8148 -2.42727
15.8735 98.7782 -1.83287
16.9845 98.7843 -1.36194
17.0956 98.7599 -0.875367
18.4917 98.7721 -1.01368
19.6081 98.6989 -4.49613
17.804 98.7111 -4.44658
15.8302 98.7416 -3.66135
15.1163 98.8026 -2.99542
16.9887 98.8819 2.04853
11.8 98.2719 -6.66286
11.4892 98.2658 -10.1967
14.7449 98.2536 -7.39723
14.962 98.3024 -6.36899
10.7759 98.2597 -7.31125
11.7345 98.2353 -8.3262
11.3813 98.2109 -9.05799
13.4442 98.2536 -7.33536
13.5932 98.2353 -8.30154
10.4967 98.1926 -10.6735
9.66957 97.9486 -12.2833
10.5883 98.0706 -11.6745
12.1647 98.0218 -12.5145
18.5359 98.6501 -4.70946
16.9621 98.3878 -5.31971
16.7779 98.3512 -5.5482
15.0627 98.2475 -5.63905
13.0563 74.6057 18.1255
12.315 73.8798 18.1557
9.96575 73.77 18.0969
11.0178 74.2397 18.1018
11.9449 74.6789 18.0833
8.69212 71.2753 18.1355
8.36458 71.7755 18.1175
8.75391 72.4281 18.1224
26.753 97.3753 17.0674
26.346 97.4546 16.9771
25.9164 97.5644 16.7981
28.1418 97.973 15.8429
24.4708 97.4729 16.8418
23.6623 97.7657 16.1371
24.4918 97.601 16.6325
23.4051 97.8998 15.4203
22.1664 97.8449 15.5093
26.1761 98.034 14.7926
30.2959 98.0279 15.588
24.6229 97.9852 14.922
22.7124 97.9486 14.928
26.4361 98.3268 13.3822
19.3152 98.4671 10.1385
23.1227 98.461 12.0462
22.4828 98.4244 11.5965
24.0196 98.339 12.9699
24.1985 98.2719 13.3867
24.2989 98.1072 14.175
25.9367 98.1194 14.2306
21.481 98.4305 10.6845
21.8803 98.4305 11.2161
21.9619 98.8819 5.22418
20.243 98.8758 4.69426
19.7984 98.8148 5.76113
20.7538 98.8331 5.72897
19.0551 98.6989 6.33278
19.9549 98.6867 6.77732
19.5102 98.705 7.73463
18.4102 98.6501 6.9037
19.4016 98.6928 8.43508
19.9423 98.6074 9.34339
18.0843 87.677 17.7837
18.8242 87.2988 17.8078
18.9277 89.7569 17.7118
19.7881 92.1907 17.6339
20.8452 91.9528 17.717
9.22173 78.0946 17.9237
8.49723 78.2288 17.9022
9.46677 80.4185 17.8978
12.4769 80.6259 17.9251
11.9014 81.2359 17.8974
10.4699 81.9434 17.8649
10.4121 76.4599 17.9522
9.26739 76.6612 17.915
11.0342 76.3684 17.9696
12.0617 76.1488 17.9876
12.0754 75.5511 17.9988
11.8846 83.1938 17.8104
14.1395 84.9505 17.8109
13.5557 83.5049 17.8264
15.8718 85.9081 17.8264
16.6171 87.0366 17.8065
18.5195 90.129 17.6814
18.5925 91.3184 17.6605
19.1397 92.4468 17.5979
21.3936 94.5695 17.5306
19.6526 93.746 17.6112
25.7202 96.6555 17.4404
25.4213 96.9727 17.2864
20.3672 94.9477 17.482
20.1573 95.3746 17.4651
22.7432 96.1798 17.5066
20.0283 95.8321 17.437
25.4213 96.9727 17.2864
23.9014 96.8507 17.2721
22.6782 96.5518 17.4039
3.57386 68.1584 18.2615
6.89855 71.074 18.1151
5.82202 70.2079 18.1232
4.28034 70.1835 18.1172
3.1781 69.0307 18.1635
7.05715 72.0988 18.1099
-12.5953 64.5841 17.7596
-10.6969 64.2791 17.8377
-9.89461 63.8156 17.8708
-9.24681 63.5594 17.9194
-8.55017 63.9681 17.9365
-5.57274 64.6695 18.0255
-4.73637 65.621 18.0466
-5.95493 65.1941 18.0026
-7.94241 65.4564 17.99
-6.74852 63.8949 18.0067
-2.85009 66.2493 18.134
-3.92345 66.5238 18.0499
-2.95864 67.7803 18.0131
-0.897959 68.5061 18.0104
-0.0191252 68.9941 18.0456
1.64829 69.0795 18.1372
0.86579 69.4149 18.0587
2.46838 68.5915 18.1918
-30.1925 56.8865 17.144
-28.2425 57.5025 17.1859
-28.751 57.8197 17.194
-27.4908 58.8993 17.1898
-26.7833 61.1379 17.2173
-25.9253 60.7597 17.2939
-27.2759 59.674 17.1808
-25.1135 60.5279 17.3279
-24.1419 60.9732 17.326
-22.3682 61.1135 17.629
-22.6801 61.2965 17.59
-23.7853 61.3087 17.3579
-22.4192 60.6804 17.5833
-19.7249 61.449 17.5667
-19.0767 61.699 17.5625
-18.1869 62.492 17.5442
-17.3731 62.614 17.6153
-16.6542 61.9979 17.7101
-21.701 61.1501 17.6559
-20.4702 61.9308 17.6212
-19.6316 62.803 17.621
-16.7319 63.1934 17.6985
-12.5731 65.0355 17.7331
-13.1715 66.3469 17.6751
-13.7052 65.2368 17.7032
-14.1206 64.1267 17.7255
-15.9907 63.5411 17.703
-15.1032 63.6021 17.7406
-45.8762 80.6503 -7.64991
-45.8998 79.8208 -7.67316
-45.9681 76.7283 -5.45717
-46.1204 76.344 -4.47371
-46.0702 77.6127 -4.59426
-45.9985 77.0882 -5.07542
-46.141 75.5084 -4.52529
-45.9901 77.9116 -5.35587
-45.9286 80.0282 -6.99345
-45.8403 81.8763 -7.42784
-45.9505 79.6988 -5.89195
-45.8791 80.388 -6.58672
-46.0354 77.9726 -4.85614
-45.9786 79.6927 -5.254
-46.3614 72.6355 -1.62692
-46.2382 73.459 -2.42171
-46.1936 74.3373 -2.94904
-46.182 76.2403 -3.871
-46.4006 72.0317 -0.975756
-46.3253 74.1299 -0.676574
-46.3775 72.2756 -0.523753
-46.3875 70.3055 -0.541255
-45.382 86.3961 -10.7447
-45.3322 86.8353 -11.2231
-45.4144 85.6397 -10.5679
-45.7735 82.2362 -7.94692
-45.6677 83.4866 -8.71204
-45.5459 86.0545 -9.21523
-45.5506 86.5852 -8.52487
-45.5783 85.5849 -8.55843
-45.7074 84.121 -7.73616
-45.4616 85.9203 -10.0997
-45.4575 86.9329 -9.60941
-39.6034 89.9277 -19.4601
-38.6524 89.513 -19.479
-37.4791 89.4093 -19.5138
-36.5744 89.1653 -19.5113
-42.9462 94.112 -19.5545
-43.4019 94.6427 -19.4691
-43.6854 94.6366 -19.1404
-39.1287 90.3303 -19.4798
-39.4746 93.2764 -19.5415
-39.9696 93.7216 -19.5624
-41.2769 93.4167 -19.5298
-39.1894 92.6237 -19.5321
-39.1905 91.7027 -19.536
-37.989 90.9707 -19.5207
-42.7887 94.6549 -19.6677
-42.1781 94.6183 -19.6828
-40.4509 94.7708 -19.6414
-41.2614 94.2767 -19.6257
-44.3944 92.8311 -17.7485
-44.3859 92.5932 -17.9942
-44.3836 93.2337 -17.3621
-44.3212 93.99 -16.8038
-44.2134 93.8741 -17.7399
-43.8352 94.7342 -18.8205
-44.061 94.2645 -18.2434
-44.4547 91.4648 -17.9229
-34.3105 88.7444 -19.4973
-35.3246 89.5008 -19.515
-44.4914 91.7576 -17.49
-45.1679 88.1589 -11.9494
-45.0393 90.5011 -12.8576
-45.1001 89.9277 -12.1926
-44.8963 92.1419 -13.1137
-44.7615 92.4651 -14.2811
-44.8071 91.8674 -14.2377
-44.5185 92.398 -16.5762
-44.6315 92.6786 -15.2437
-44.5317 92.8433 -16.2934
-46.3053 70.763 6.18241
-46.3726 70.4824 6.99153
-46.3624 72.8673 5.02521
-46.2588 72.2207 6.03343
-46.2546 72.5806 6.73182
-46.3754 72.422 4.0122
-46.3468 71.3424 4.76144
-46.348 72.544 4.41068
-46.4181 70.7142 0.696445
-46.3596 71.4095 0.255258
-46.3929 72.4525 -0.150413
-46.393 72.9161 3.07083
-46.3396 72.8307 3.61556
-46.4006 73.4773 2.45357
-46.394 72.849 2.17624
-46.3234 72.544 0.696445
-46.4297 72.5562 1.3063
-33.3915 58.3321 16.896
-32.8798 57.4598 16.9692
-32.3837 58.3748 16.9246
-32.1603 57.4659 16.9819
-31.8645 57.5269 17.0602
-31.0966 57.4842 17.2676
-36.142 59.3873 16.8179
-35.7429 59.3141 16.7599
-37.2639 61.0586 16.8457
-36.8928 60.6926 16.9165
-36.5293 60.0705 16.8847
-35.0667 59.3263 16.6616
-34.4501 59.1738 16.6537
-40.4738 67.4387 16.339
-40.6067 65.8772 16.3407
-40.2763 64.883 16.3943
-45.1849 71.8426 15.7742
-44.2754 70.3421 16.0865
-44.4983 68.9331 16.0804
-44.8367 71.4644 15.9479
-44.4808 67.7864 16.0563
-44.1107 68.1524 16.094
-41.5019 68.1036 16.2352
-42.0754 67.6156 16.2098
-43.2078 68.3719 16.1342
-41.7212 69.1893 16.2228
-40.2127 69.171 16.3087
-37.5609 62.3456 16.6539
-39.658 63.413 16.4472
-38.848 64.5414 16.4843
-39.2053 62.5591 16.4594
-38.3595 63.2849 16.5452
-37.633 62.8945 16.6038
-45.9337 76.3806 14.7418
-45.6401 75.9232 15.4308
-45.8208 77.8567 15.1906
-45.8875 76.9235 14.9924
-45.3502 74.136 15.7099
-45.4073 73.0442 15.5821
-45.1961 72.9771 15.7125
-46.062 75.4291 11.9945
-46.0434 76.5819 12.8649
-46.0401 77.0882 13.3623
-45.9958 76.7954 14.2986
-46.2136 72.0439 8.33879
-46.2061 73.0625 9.08926
-46.172 72.0988 9.48785
-46.2649 71.3058 7.73262
-46.2308 72.5013 7.78994
-46.3007 71.8304 7.16927
-46.0671 75.0814 11.5696
-46.1845 74.9716 10.1048
-46.1873 75.7646 10.2427
-46.1027 76.9967 11.1158
-46.2334 75.0022 8.82949
-46.2182 74.0628 8.3466
-26.2717 92.0321 -19.3444
-25.395 92.1907 -19.3172
-23.6216 94.2218 -19.2679
-24.4587 93.8802 -19.2819
-25.1823 93.0812 -19.305
-23.0422 94.539 -19.2354
-27.1555 92.2578 -19.3536
-27.7791 91.3184 -19.3569
-21.671 93.8253 -19.1692
-30.0072 90.1473 -19.3917
-28.7334 91.843 -19.4248
-32.0589 90.8488 -19.4795
-31.3798 90.922 -19.4382
-29.0861 92.1114 -19.452
-33.3543 89.7508 -19.4672
-32.8492 90.1473 -19.4579
-21.6178 94.6488 -19.1502
-19.2851 95.0696 -19.0341
-21.1965 94.9904 -19.0959
-22.3189 94.8623 -19.154
-22.1275 95.3136 -18.9782
-13.4663 95.5698 -18.6234
-14.9009 95.8321 -18.4251
-15.5227 95.9114 -18.2983
-16.0287 95.8016 -18.4392
-23.8904 95.6918 -18.7215
-17.0313 96.07 -18.0429
-17.4719 96.1737 -17.8618
-18.5478 95.8687 -18.4157
-20.5891 95.4417 -18.8509
-9.88437 95.7223 -18.3943
-10.9927 95.6979 -18.4301
-6.86063 95.8565 -18.1879
-5.62504 95.8504 -18.1846
-8.80261 95.8931 -18.2147
-1.64824 95.9114 -18.0931
0.408055 95.9602 -18.0132
-4.5859 95.9907 -18.0246
-3.45852 96.0639 -17.9925
10.7485 96.7287 -17.0432
8.25582 96.4664 -17.5451
9.5617 96.686 -17.1127
3.91518 96.4542 -17.3439
6.60799 96.5396 -17.277
2.90382 96.5152 -17.2275
2.39668 96.5091 -17.2391
0.570879 96.2591 -17.6266
8.77253 97.8937 -13.1085
8.17413 97.8449 -13.8893
11.2177 97.973 -12.5949
8.17254 97.9181 -12.6432
9.26925 97.7351 -14.3629
10.6931 97.7534 -14.2596
11.4991 97.1862 -15.7767
10.1889 97.0581 -16.0863
10.8232 97.479 -15.0487
17.6148 98.7538 3.3429
16.0368 98.7782 2.51425
18.0409 98.766 3.67236
19.8946 98.8453 4.16826
14.8347 98.8453 1.92752
15.2059 98.7721 2.51853
14.1658 98.705 -0.525372
12.9502 98.7843 1.14894
12.0962 98.7599 0.943971
11.2964 98.7721 0.380501
11.1431 98.7294 -0.282539
12.5452 98.7294 -0.274945
14.5887 98.7416 2.77622
15.6555 98.7355 -1.11296
14.5751 98.7477 -2.20287
13.8255 98.6684 -1.30818
13.1213 98.7599 1.90291
16.2638 98.6379 -4.74416
15.646 98.6684 -4.43919
14.4466 98.6806 -3.96657
12.8879 98.7294 -3.41718
13.6698 98.7721 -2.88081
10.6719 98.2414 -6.68796
11.8192 98.2292 -6.07693
10.1467 98.217 -10.3294
10.4114 98.1926 -9.37681
9.93796 98.1621 -8.6249
8.79902 98.1987 -7.63108
8.48793 98.1926 -7.05854
9.1828 98.1499 -8.85423
9.22538 98.095 -11.4773
7.89497 98.1072 -11.4861
7.32029 98.1804 -10.8328
7.19059 97.9486 -12.3979
15.5589 98.3268 -5.33127
14.1376 98.2536 -5.44481
9.69284 75.0326 18.049
8.79393 73.2943 18.0829
11.1695 75.4108 18.0216
7.59197 73.7822 18.051
7.46231 72.8307 18.0993
25.9173 97.296 17.1032
25.3222 97.3204 17.057
23.0466 97.5949 16.6234
22.0968 97.3875 16.889
24.0712 97.1923 17.0858
22.6139 97.1618 17.086
21.7658 97.7108 16.0961
20.9781 97.8389 15.4887
22.3989 98.0035 14.4523
20.7077 98.0401 14.0891
18.9822 97.973 14.4205
19.2787 97.906 14.937
17.8994 98.4854 9.63959
17.2433 98.3817 10.3916
19.264 98.4366 10.6018
21.9767 98.2963 12.8555
23.2912 98.1987 13.5276
21.2421 98.4366 12.1977
20.2383 98.4244 11.0405
19.1496 98.4244 11.2659
20.538 98.4549 11.8116
20.0241 98.8758 5.0051
17.7808 98.8331 4.49324
18.8786 98.8514 5.07901
17.2601 98.7294 5.64395
17.6265 98.644 6.33577
16.8678 98.7965 4.98482
17.0232 98.7721 5.30898
18.2968 98.6928 7.84367
17.5726 98.6318 7.14511
16.2739 98.6135 6.38811
17.9744 98.6684 8.52243
17.8151 98.5586 9.22283
17.995 90.3242 17.6648
16.6913 90.5682 17.6564
18.0942 92.9226 17.5529
18.8622 94.2706 17.5578
17.7528 94.4658 17.4834
7.77897 77.0821 17.8642
8.31564 80.6015 17.8715
7.36954 78.5826 17.8589
7.19237 78.0702 17.8497
9.02048 82.4558 17.8053
10.0721 82.6571 17.8283
10.609 84.0295 17.7773
9.73467 75.9964 17.9716
7.8656 75.8561 17.9531
12.1142 84.371 17.7764
12.7861 85.2677 17.7663
13.3374 86.0606 17.7487
15.7771 87.8295 17.7571
14.9366 87.1341 17.7604
17.8966 91.4221 17.6363
19.4911 94.9721 17.5116
18.3442 95.765 17.5011
20.5186 96.3506 17.3561
19.03 96.1615 17.4038
23.9014 96.8507 17.2721
22.1415 96.7043 17.3271
6.41286 71.8121 18.0842
5.97999 71.9524 18.0612
5.5529 72.8246 18.0399
2.58158 70.5129 18.0676
2.97959 72.0622 18.0404
4.28946 72.3915 18.0669
4.91974 72.2573 18.0703
6.21133 72.6904 18.0587
6.10249 74.0018 17.9962
-11.1129 65.0233 17.8032
-9.46996 64.3218 17.8731
-8.80496 64.1693 17.9212
-4.6443 66.5848 18.0221
-4.50397 67.2984 18.0134
-5.93484 66.8775 18.003
-7.45886 66.2493 17.9783
-9.0803 66.2249 17.9237
-9.39537 65.2734 17.9075
-4.07034 68.2316 17.9946
-2.4987 68.5183 17.9782
-1.01835 69.354 18.0139
0.00369326 69.7382 18.0065
1.12788 70.6044 18.0268
-29.4409 58.1308 17.2464
-28.4186 59.0518 17.1806
-28.2244 60.1192 17.1839
-26.6626 62.4005 17.1902
-25.7506 61.2355 17.2842
-27.5095 61.3148 17.2045
-27.1713 62.6201 17.1581
-25.0562 61.577 17.3226
-24.1543 62.4859 17.3297
-22.0539 61.6197 17.6524
-23.0148 62.1199 17.4512
-23.2655 61.7905 17.4462
-23.7538 62.1138 17.3561
-19.5121 63.0226 17.6191
-18.8074 62.3944 17.5473
-18.4659 63.4008 17.6223
-17.2062 63.3825 17.6654
-20.9922 61.8942 17.6291
-20.1302 62.9982 17.6064
-16.7688 63.718 17.6806
-12.0641 66.9751 17.7763
-13.33 67.6095 17.7497
-14.1821 67.9511 17.715
-14.5579 66.7555 17.6465
-11.7806 66.1151 17.7597
-15.1224 64.8586 17.6694
-14.937 65.4442 17.6646
-15.6827 64.8281 17.6388
-16.3656 64.5231 17.6329
-46.1634 76.0391 -4.19778
-46.1487 76.4843 -4.25192
-46.093 79.3328 -4.48587
-46.1069 78.7534 -4.19605
-45.7797 82.6754 -6.69304
-45.7867 82.651 -7.56014
-45.9293 80.9248 -5.26894
-45.8951 81.1078 -5.82482
-45.8688 80.7662 -6.35561
-46.0134 79.7537 -4.92276
-46.3246 74.1482 -1.60897
-46.1797 75.3803 -2.41758
-46.2369 74.7826 -1.99607
-46.1767 76.3684 -3.2325
-46.1316 77.7469 -3.67391
-46.3079 73.4956 0.0858732
-46.3269 74.6118 -1.35049
-46.3184 75.6853 -0.942862
-46.3055 75.545 -0.548563
-45.3176 87.86 -10.56
-45.2573 88.1406 -11.1777
-45.7593 83.1328 -7.84973
-45.6693 84.8529 -7.60469
-45.5886 86.3412 -7.76019
-45.5165 87.9576 -8.19563
-45.466 87.8722 -9.05705
-45.6649 84.6455 -6.65802
-45.7137 83.6452 -6.72504
-45.3447 88.2991 -9.85423
-37.9037 90.251 -19.4815
-36.0371 90.2876 -19.4819
-43.3037 94.8989 -19.4808
-43.4944 95.1245 -19.2184
-38.7084 93.6058 -19.5335
-39.9343 94.4902 -19.6343
-37.6969 92.3432 -19.5403
-36.5573 92.5078 -19.552
-42.3142 95.1123 -19.5889
-42.9873 94.9782 -19.5883
-40.702 95.1611 -19.5588
-40.0452 95.2404 -19.4967
-38.8848 94.8684 -19.5498
-44.4535 93.6363 -16.3694
-44.2186 94.0449 -17.3089
-44.2953 94.1974 -15.8418
-44.192 94.3682 -16.5274
-43.843 94.9233 -17.3499
-44.0081 94.4292 -17.958
-43.7145 95.2953 -18.4717
-43.5555 95.3685 -18.9057
-34.2601 90.2266 -19.4736
-35.0079 90.8427 -19.5073
-44.9788 92.581 -11.6136
-45.0599 91.0256 -12.0185
-45.2002 89.7082 -11.4258
-44.849 93.1056 -12.7898
-44.5592 93.3313 -15.1534
-44.6567 92.9714 -14.6396
-44.7416 93.4045 -13.361
-46.3376 73.9835 4.40455
-46.3067 73.4346 5.61805
-46.3182 74.1238 5.23875
-46.2499 74.7887 5.9721
-46.2337 74.7521 6.3838
-46.2248 72.9832 7.18393
-46.3573 73.3065 3.80206
-46.3612 71.2997 0.506658
-46.3055 72.6355 0.480787
-46.3954 74.2519 2.67592
-46.3461 73.8859 1.73567
-46.3238 73.8493 1.2986
-46.2656 73.4712 0.678496
-33.6944 58.9969 16.7317
-34.2771 59.5337 16.5833
-31.7088 58.1613 17.0541
-32.2229 59.2104 16.8981
-31.7761 58.7834 16.9726
-31.3344 57.8807 17.177
-30.6829 58.1613 17.1847
-36.0476 60.04 16.8068
-35.9784 59.6557 16.7867
-35.1249 59.8753 16.6338
-35.572 60.0278 16.7162
-36.8934 61.2965 16.8944
-36.5153 61.1745 16.907
-36.4107 60.8146 16.919
-35.9195 60.5523 16.8421
-39.3134 69.1832 16.3898
-39.1738 67.8596 16.4229
-39.698 65.4137 16.3826
-39.3982 66.4567 16.4018
-44.6829 72.788 15.8755
-43.7448 71.6901 16.0811
-43.8011 69.2869 16.1196
-44.5982 71.6291 15.9968
-42.8227 69.3113 16.158
-42.5477 69.4577 16.1791
-41.3427 69.7382 16.252
-40.3621 70.5739 16.333
-39.2676 70.0615 16.3867
-36.8149 61.9857 16.7948
-39.0741 63.9193 16.4663
-38.9002 65.2856 16.429
-37.8772 65.6088 16.5241
-38.1642 64.5231 16.5524
-37.4064 64.1572 16.569
-36.772 64.5109 16.5827
-36.1839 63.718 16.6871
-36.5461 62.7664 16.7284
-45.9407 78.7656 14.8694
-45.993 77.9055 14.3633
-45.3007 74.6728 15.7352
-45.5496 76.4111 15.519
-45.435 78.0763 15.6179
-45.6507 79.3877 15.4259
-45.822 79.2108 15.1811
-45.3502 74.136 15.7099
-44.9972 74.4654 15.8869
-46.0816 76.4599 11.9414
-46.067 78.0763 12.0204
-46.0463 78.6558 12.5228
-46.0327 78.1556 13.5926
-46.2434 74.2763 7.61475
-46.2399 75.7036 9.0083
-46.2234 75.9842 9.29231
-46.2159 76.7344 9.86938
-46.208 76.5331 10.3243
-46.1018 77.2895 11.0795
-46.2552 75.667 7.73909
-46.2361 76.3745 8.35418
-26.2469 92.3127 -19.3464
-24.6699 94.6671 -19.3083
-25.8837 93.6119 -19.3198
-27.0586 93.496 -19.3402
-23.4215 94.9721 -19.1881
-27.7336 92.148 -19.3711
-32.4046 92.1175 -19.4955
-31.5596 92.3615 -19.4719
-33.0958 91.4038 -19.522
-31.0185 92.5261 -19.4779
-29.1532 92.7152 -19.4586
-28.2897 93.2459 -19.3914
-22.1275 95.3136 -18.9782
-11.4671 95.826 -18.33
-13.3914 95.948 -18.2368
-13.9923 96.0395 -18.1112
-14.7371 96.192 -17.8667
-23.7187 95.9846 -18.2922
-23.0735 95.8565 -18.5053
-23.5983 95.3563 -19.013
-24.919 95.6369 -18.8474
-25.1 95.9663 -18.4106
-15.3631 96.4421 -17.3743
-16.4744 96.2591 -17.6884
-16.9544 96.5518 -17.0351
-18.5758 96.1798 -17.911
-19.4325 96.0273 -18.1806
-20.7831 95.7894 -18.5365
-10.3136 96.0517 -18.0129
-7.29479 96.1005 -17.9137
-6.41793 96.0883 -17.881
-5.59748 96.2347 -17.6419
-4.05091 96.3445 -17.5286
-8.58664 96.2408 -17.7398
-1.56111 96.1066 -17.8489
-3.0217 96.3566 -17.5194
-0.897217 96.3566 -17.4288
8.32228 96.6372 -17.2192
7.73407 96.8812 -16.537
4.14459 96.9483 -16.2153
4.88206 96.7836 -16.5861
7.53452 97.0764 -16.0454
2.23672 96.9788 -16.2196
1.01414 96.5945 -16.991
7.36006 97.8571 -13.1793
5.77364 97.7473 -14.1729
6.94136 97.6619 -14.6492
6.04511 97.9181 -12.3934
4.07653 97.7351 -13.3058
7.87605 97.5034 -15.1144
10.1973 97.4485 -15.1348
9.24568 97.1862 -15.7914
11.9541 98.7538 1.8811
16.4411 98.766 3.74264
15.8185 98.7233 3.22311
13.4147 98.6989 2.54622
14.6331 98.7233 3.27272
10.1225 98.7172 0.942609
9.26165 98.7111 -0.3667
9.39459 98.7233 0.354329
8.36813 98.6623 0.85505
9.40324 98.6806 -1.22187
10.9903 98.6806 -1.0969
12.0475 98.7233 -0.805793
12.8993 98.705 -2.28597
12.0413 98.6623 -1.54126
15.4459 98.583 -4.7909
13.8363 98.6501 -4.31644
10.3584 98.7416 -3.45696
10.2757 98.7416 -3.2345
12.2885 98.7233 -2.79111
9.9682 98.1377 -5.79093
12.7817 98.2292 -5.71646
11.7058 98.217 -5.68631
13.3907 98.2536 -5.51479
7.92396 98.1865 -10.2403
9.03921 98.1499 -9.58016
6.08705 98.1865 -7.63055
5.49837 98.1377 -6.99959
6.18075 98.0523 -6.32773
8.20726 98.0706 -6.08115
7.94926 98.1377 -9.64167
7.05128 98.1255 -8.58
4.98857 98.0645 -11.7024
6.21196 98.0462 -11.794
5.91092 98.1255 -11.2386
3.40265 98.0889 -11.066
4.93347 98.1377 -10.7292
6.06402 98.1316 -10.2745
13.8199 98.3756 -5.17897
14.1966 98.5891 -4.73605
8.68418 74.6423 18.0566
8.86149 75.5633 18.002
5.08852 73.2943 18.0188
7.15892 75.0082 17.9532
20.3477 97.5949 16.405
21.7023 97.5766 16.5632
20.7408 97.54 16.5826
21.0816 97.3204 16.902
21.6007 97.0825 17.1014
22.1415 96.7043 17.3271
20.3695 97.6681 16.1595
18.9232 97.6742 15.973
19.9244 97.6925 16.0071
16.9571 97.8023 15.0449
19.49 97.8205 15.3449
22.5304 98.095 13.9555
19.1856 98.0157 14.0669
21.1666 98.1743 13.2637
17.0537 97.9486 13.9833
16.7391 97.8937 14.4636
16.5492 98.4244 9.71089
17.3009 98.3817 10.7441
15.2902 98.3878 9.89799
15.6977 98.3573 10.5195
20.1198 98.2536 12.7583
19.3071 98.3634 12.2514
16.8199 98.339 11.6362
16.2144 98.827 4.56408
15.5236 98.6745 5.71669
11.9383 98.644 5.05401
13.6214 98.644 8.1433
17.0666 98.644 8.47893
14.8066 98.8331 4.58949
15.4459 98.7538 5.22516
16.9911 98.6623 8.07019
16.7472 98.6623 7.68938
16.27 98.6257 6.93267
14.6913 98.6501 5.8045
14.0838 98.5769 6.58334
16.0978 98.5952 8.71343
17.4073 91.2269 17.6463
15.5804 90.1351 17.6308
16.1869 91.4709 17.6055
16.5135 92.8311 17.5557
15.9963 93.0568 17.5266
16.2983 94.8745 17.415
17.4346 95.643 17.4607
17.2217 95.0697 17.4375
5.56046 76.1915 17.8997
6.10731 77.1004 17.8261
5.85464 77.7469 17.784
8.88819 84.0295 17.725
6.6837 80.5954 17.8176
8.09418 80.815 17.8513
4.8256 79.284 17.815
5.19485 78.9851 17.8195
5.73608 78.5765 17.8191
9.64039 84.2979 17.7454
10.6054 85.2555 17.7489
5.2107 75.0509 17.9081
5.03247 75.4535 17.8949
11.8928 86.0301 17.727
10.754 86.6645 17.697
13.7916 87.4818 17.7121
13.3127 86.9573 17.7215
14.4521 89.4398 17.6349
17.34 91.9467 17.5995
16.7821 96.0029 17.4144
17.7663 96.4969 17.3504
20.5186 96.3506 17.3561
19.6682 96.5335 17.278
5.35789 74.4532 17.9397
2.06378 71.1899 18.0511
3.69722 73.5809 18.0216
1.78994 72.544 17.9701
-10.4998 66.0846 17.8764
-5.22237 68.4329 18.0046
-6.55447 67.6827 17.9698
-5.78233 67.9084 17.985
-7.4834 69.4577 17.8526
-7.0493 68.1036 17.9198
-8.19601 68.006 17.8802
-9.27483 67.7986 17.8748
-9.98304 67.7742 17.8543
-4.68981 68.622 18.0016
-3.5017 69.4454 18.0167
-2.49791 69.4577 18.0405
-0.664632 69.8663 18.0104
-2.48163 69.9029 18.0416
0.156955 70.6227 17.9815
-30.0884 58.4541 17.1394
-29.2341 58.7469 17.1529
-28.9991 59.1799 17.0748
-28.6759 59.7777 17.1117
-28.3675 60.4669 17.1973
-25.6214 63.6692 17.2194
-25.5809 62.9128 17.2658
-27.5864 63.1141 17.122
-28.3431 62.1687 17.2134
-28.8009 61.266 17.2562
-27.1331 63.2849 17.1217
-26.1328 64.0718 17.1919
-24.764 62.803 17.3085
-24.2789 63.3886 17.2827
-23.2088 63.0592 17.3549
-21.8771 62.4127 17.5466
-21.6477 63.4252 17.4724
-18.9235 64.145 17.6707
-18.7158 64.4194 17.6796
-21.0888 62.5835 17.5573
-20.5199 62.864 17.5905
-19.2004 64.5658 17.6527
-20.1602 63.7119 17.5594
-17.0109 64.1389 17.6726
-11.3441 67.0727 17.8112
-12.0772 67.8291 17.7871
-12.355 68.3048 17.7707
-12.9322 68.189 17.7516
-13.0349 68.7196 17.7018
-14.3798 68.1158 17.6888
-15.3946 68.1828 17.6144
-15.4585 67.3777 17.585
-15.6384 66.8775 17.5804
-15.7107 65.621 17.6288
-16.7451 65.5661 17.6053
-46.141 79.8757 -4.18401
-45.9484 80.9004 -5.06276
-46.0943 78.7534 -3.74344
-45.737 83.877 -6.08938
-45.8189 82.2545 -6.11124
-45.8499 81.608 -6.19136
-45.7856 82.6937 -5.56684
-46.1238 77.32 -2.98176
-46.1323 77.4237 -2.39472
-46.181 77.4968 -1.8777
-46.1977 76.8259 -1.82596
-46.2788 76.4172 -1.37491
-46.0505 78.5948 -3.26901
-46.2875 74.441 0.507889
-46.3074 75.7707 -0.169482
-46.2792 76.5087 -0.772752
-46.2878 76.7405 -0.0178329
-45.3034 90.3425 -9.6762
-45.5858 85.9142 -7.2502
-45.566 87.7319 -7.5675
-45.3547 89.4276 -9.14899
-45.4515 88.7505 -8.43415
-45.5874 87.9454 -7.13751
-45.3679 88.8176 -9.51965
-45.5893 86.0667 -6.75844
-36.8954 91.3733 -19.5348
-36.4867 90.8183 -19.4878
-36.14 91.416 -19.5372
-43.176 95.2465 -19.3928
-43.3064 95.4051 -19.1987
-37.3808 94.8623 -19.5201
-38.4221 93.5326 -19.5201
-37.3655 95.1063 -19.4189
-37.3601 93.5631 -19.4976
-35.5834 93.3862 -19.535
-35.4823 92.4102 -19.5806
-42.3142 95.1123 -19.5889
-42.7462 95.216 -19.5149
-40.702 95.1611 -19.5588
-40.0452 95.2404 -19.4967
-38.5954 95.46 -19.2873
-44.4251 93.9107 -14.8737
-44.5615 94.1974 -12.6281
-44.1824 94.3926 -15.5664
-43.8288 95.094 -16.2927
-43.7087 95.3563 -17.6432
-43.5256 95.7467 -17.7308
-43.4157 95.7467 -18.3524
-43.2254 95.7772 -18.7646
-43.2857 96.0883 -17.5629
-43.1931 95.6247 -19.0802
-34.3971 91.4282 -19.5515
-35.5724 91.4526 -19.5538
-44.9111 93.2093 -11.3824
-44.7554 93.6302 -12.6897
-45.099 92.6542 -10.6793
-45.1297 92.3249 -10.7484
-45.1026 91.5502 -11.4596
-45.2195 90.2144 -10.9879
-44.5515 93.5814 -14.5361
-44.569 93.9961 -13.4826
-46.3677 74.2946 4.08011
-46.3365 76.4111 4.13659
-46.3771 75.8134 4.73808
-46.315 75.3803 5.28531
-46.2952 75.4535 5.71992
-46.2655 76.1854 6.27056
-46.2023 74.38 7.09919
-46.237 76.2038 6.95043
-46.3855 73.8981 3.71726
-46.4126 75.2705 2.64174
-46.376 74.3678 3.37141
-46.3473 75.3559 1.76086
-33.2736 59.9119 16.7348
-34.2439 59.9424 16.6075
-31.3222 58.5517 17.029
-31.7168 59.5093 16.9058
-31.7533 60.2595 16.8989
-32.3331 61.4367 16.8553
-32.8431 60.7353 16.8082
-31.3593 59.2043 16.9015
-34.9282 60.717 16.7601
-35.4954 60.8207 16.8223
-34.2577 60.7414 16.7295
-35.4647 61.1501 16.8276
-34.9875 61.6441 16.7228
-37.8163 68.683 16.5125
-38.537 68.7501 16.4556
-43.6363 73.0015 15.9939
-44.445 73.5078 15.9371
-42.4877 72.422 16.1691
-42.6583 70.8606 16.1544
-41.8133 71.1045 16.2126
-42.597 70.2323 16.1594
-38.7562 70.9093 16.3794
-40.0506 71.6352 16.2916
-40.8314 71.44 16.2739
-38.5025 70.0493 16.4601
-35.4092 62.2297 16.6575
-37.4092 67.6644 16.539
-32.5959 65.6088 17.033
-37.2589 66.9934 16.5423
-36.4752 67.3472 16.5609
-37.4267 65.7064 16.5285
-35.4715 64.5231 16.7526
-36.3165 65.8955 16.4918
-36.0607 64.3462 16.6789
-36.3178 64.9196 16.6155
-35.6031 63.0897 16.6999
-34.5518 63.1812 16.7813
-35.4117 63.9864 16.737
-46.0264 79.3511 14.3683
-45.9652 80.9736 14.917
-46.0542 82.5229 14.6066
-45.3007 74.6728 15.7352
-45.5496 76.4111 15.519
-45.435 78.0763 15.6179
-45.6507 79.3877 15.4259
-45.525 81.4311 15.5462
-45.8127 81.3152 15.2404
-45.3019 77.2895 15.6911
-45.1216 77.1736 15.7815
-44.804 76.9296 15.8861
-44.7915 75.2583 15.9226
-44.5669 74.4532 15.9547
-46.0726 78.1373 11.4055
-46.0768 79.3572 11.8059
-46.121 81.5348 11.9683
-46.0696 80.3027 12.8519
-46.0548 79.3389 13.3818
-46.2409 76.1428 7.29244
-46.2392 76.5331 9.23845
-46.2495 78.6009 8.90331
-46.2004 77.7835 9.80816
-46.2042 77.7103 10.3236
-46.0939 78.6985 11.1238
-46.2683 76.8991 7.61119
-46.2325 77.0333 8.17454
-46.2343 78.5582 8.28169
-27.4117 94.5085 -19.3839
-24.6693 94.8623 -19.2862
-27.9389 94.2462 -19.3958
-23.4215 94.9721 -19.1881
-34.1609 92.3249 -19.5854
-32.1425 93.3679 -19.458
-30.69 93.1605 -19.4614
-29.1872 93.6424 -19.4411
-23.1115 95.4234 -18.9434
-10.9925 96.1859 -17.8059
-12.7538 96.0883 -18.0031
-12.7071 96.2591 -17.7013
-13.2893 96.4908 -17.2491
-24.0956 96.2652 -17.7807
-22.12 95.8626 -18.4705
-21.41 96.4054 -17.4238
-24.8538 95.4478 -19.011
-24.6693 94.8623 -19.2862
-24.8586 95.033 -19.2515
-25.7614 95.3685 -19.0837
-26.3686 95.5271 -18.9472
-26.6448 95.7467 -18.7004
-26.7188 96.2408 -17.8567
-25.095 96.2469 -17.8872
-27.7169 95.8748 -18.4976
-14.1264 96.6982 -16.8177
-15.7424 96.625 -16.951
-17.5385 96.686 -16.7185
-16.1168 96.7897 -16.5246
-18.3907 96.4969 -17.204
-19.4197 96.3689 -17.5491
-20.6027 96.1188 -18.0354
-9.69384 96.3689 -17.4942
-5.60929 96.3505 -17.4482
-7.18449 96.5335 -17.0788
-5.38765 96.4237 -17.3184
-4.6873 97.0337 -16.1395
-3.05978 97.0459 -16.1068
-2.48112 96.7714 -16.6513
-7.5248 96.8141 -16.5257
-8.64462 96.7592 -16.698
-0.791954 96.7287 -16.6373
3.0299 97.2838 -15.5522
4.88426 97.357 -15.3754
6.68546 97.4119 -15.2871
2.58582 97.357 -15.394
0.4188 96.9422 -16.2215
1.8826 97.3082 -15.5445
5.02907 97.8571 -12.6507
5.63005 97.7961 -13.3894
3.68072 97.6619 -14.0919
4.06154 97.6192 -14.5639
5.97087 97.5949 -14.782
2.51831 97.6742 -13.6998
1.58488 97.6742 -13.5664
2.95311 97.7961 -12.8532
3.82515 97.8327 -12.6156
10.0869 98.6928 1.99816
11.8979 98.6806 2.47445
13.929 98.766 4.80659
14.5173 98.766 3.7831
15.2692 98.827 4.30715
12.6955 98.6806 3.19788
8.42286 98.6562 1.13734
7.36795 98.6135 -1.30307
7.09989 98.6745 -0.42242
7.84759 98.6867 -0.151445
6.6764 98.6623 -0.108695
8.58278 98.6623 1.48837
7.19404 98.5952 0.862285
7.29017 98.5586 -1.82929
9.61064 98.6257 -1.912
10.4069 98.644 -2.19824
10.8021 98.6623 -4.52227
12.9374 98.6196 -4.65851
7.85255 98.6684 -3.84945
7.3073 98.644 -3.54721
8.26757 98.6379 -4.46677
7.99287 98.583 -2.89816
9.9682 98.1377 -5.79093
7.76328 98.1499 -5.61092
8.69528 98.2597 -5.41806
9.04273 98.2109 -5.50921
9.9033 98.2231 -5.47753
10.5892 98.1926 -5.60403
12.3995 98.2963 -5.39811
6.04776 98.0828 -9.21149
4.48489 98.1377 -7.85114
4.99233 98.0462 -6.38852
3.74927 97.9791 -6.41947
3.51923 98.0645 -7.12478
4.03071 98.0523 -9.35859
5.20399 98.0767 -6.06815
6.38074 98.0828 -5.84282
7.40294 98.0767 -5.84471
3.35755 98.0279 -11.7233
2.13178 98.0889 -7.97863
2.07158 98.0584 -11.2356
2.25177 98.0523 -10.8093
4.36728 98.095 -10.1829
4.54116 98.0828 -9.98299
5.09443 98.0584 -9.44885
12.5761 98.4854 -5.02945
4.32155 74.3434 17.9831
19.9511 97.5217 16.586
19.7528 97.3204 16.8152
19.99 96.9422 17.0919
18.9371 97.6071 16.1979
17.8175 97.418 16.5804
17.3617 97.5095 16.319
16.6938 97.601 15.8248
13.2823 97.8023 14.5699
15.1912 97.6376 15.5727
15.1799 97.8693 14.5511
18.6428 98.1133 13.3587
19.8802 98.1621 13.2201
14.1316 97.9486 13.7186
16.4199 98.0279 13.3729
14.9336 97.9913 13.5034
14.9641 98.4854 9.143
13.8574 98.4061 9.54387
15.6862 98.3695 11.0656
15.4746 98.3695 11.196
14.2308 98.3756 9.9694
13.2372 98.3573 10.6567
15.685 98.1621 12.6001
13.5239 98.339 11.2999
12.3192 98.339 9.83272
14.946 98.3329 11.5104
14.2071 98.6745 7.85277
10.7932 98.583 5.38172
11.2318 98.7538 4.27298
11.9951 98.7111 4.62146
13.5571 98.6806 5.32137
11.8425 98.5403 6.01004
13.3334 98.4305 9.13317
12.5672 98.4854 8.61046
10.8622 98.5159 8.132
10.9634 98.583 7.4732
12.7016 98.6379 7.5999
14.2078 98.5952 8.49356
13.7694 98.7782 4.50127
13.9273 98.7843 4.12716
13.8626 98.6684 7.5688
13.4525 98.5952 5.85873
10.018 98.5159 6.11205
11.6834 98.5769 6.78531
13.7759 98.6562 7.34116
13.8151 90.3913 17.562
14.6422 91.6417 17.5584
15.293 92.8616 17.5094
15.6429 95.1489 17.3678
5.12028 76.71 17.8546
5.22086 77.7774 17.7924
8.05151 85.6581 17.6583
7.93889 83.7489 17.7005
7.39934 82.2118 17.7617
5.87412 81.1017 17.797
3.55042 78.3325 17.7638
2.94039 79.4487 17.7662
4.54295 80.3393 17.7953
4.21358 78.0641 17.7803
4.47372 75.3803 17.8848
13.1881 88.7261 17.6398
12.4241 88.9762 17.6105
10.4291 87.128 17.6687
13.8486 89.5984 17.5972
15.4972 95.8626 17.3567
16.48 96.2164 17.3818
16.9625 96.6616 17.2621
17.7663 96.4969 17.3504
18.2424 96.8995 17.1432
19.6682 96.5335 17.278
0.185261 71.8792 17.9678
1.76435 74.624 17.9098
2.18579 75.4474 17.8656
3.85564 74.8374 17.9415
1.24063 73.3736 17.9207
-11.0543 67.7986 17.8128
-6.39087 68.6281 17.9039
-5.06684 69.6284 17.9236
-8.12679 70.4336 17.7907
-9.17319 70.0981 17.7819
-9.26967 68.9453 17.8197
-6.73654 69.5369 17.8532
-6.60611 70.2689 17.8326
-7.29423 70.3543 17.8124
-9.98473 69.3845 17.7936
-3.89135 69.7199 18.0007
-0.946982 70.5007 17.9671
-2.543 70.8301 17.9326
-0.896617 71.0557 17.9214
-30.3387 58.9969 16.9083
-30.0792 59.2714 16.8519
-29.4776 59.6801 16.8926
-28.7749 60.2595 17.125
-29.3022 60.0522 16.9744
-23.8832 64.4316 17.2767
-27.6894 63.596 17.0612
-28.5296 63.6814 17.1102
-28.9952 62.6262 17.149
-28.9589 63.4496 17.1102
-29.4717 60.8817 17.0677
-29.5825 61.4002 17.0722
-29.8247 62.0162 17.0295
-27.2082 63.8827 17.0708
-26.8802 64.6085 17.0707
-26.0923 64.6207 17.169
-22.1328 63.3642 17.4288
-22.838 64.2303 17.276
-21.2449 64.0352 17.4483
-22.105 64.1754 17.3292
-18.6423 64.9257 17.6407
-17.4207 64.8586 17.6216
-19.8769 64.9684 17.468
-18.7253 65.6454 17.5108
-20.5508 64.6024 17.4063
-11.2773 68.9209 17.7721
-12.034 69.0124 17.7595
-12.0432 69.5918 17.7057
-12.3222 70.7996 17.6451
-13.5241 69.9883 17.6133
-14.1836 69.0368 17.5904
-14.9763 69.0002 17.593
-14.9418 69.7443 17.5628
-15.9589 67.762 17.5735
-16.1471 68.9453 17.5829
-16.8685 68.2438 17.5678
-16.3979 67.1459 17.5725
-16.391 66.1822 17.6128
-17.2978 66.1822 17.5039
-16.8329 66.8348 17.5762
-17.7241 65.8833 17.4755
-46.032 80.8394 -3.63599
-46.0683 80.7845 -4.3893
-45.946 81.797 -4.45977
-45.7486 83.9258 -5.61273
-45.7547 84.4381 -4.93737
-45.6842 86.6584 -5.53205
-45.6169 87.3476 -6.30649
-45.8214 83.0901 -5.06616
-46.0336 78.7595 -2.93928
-46.1075 79.0766 -2.0554
-46.2825 77.8628 -1.2993
-46.2993 76.6002 0.736259
-46.2896 77.2773 0.0893296
-46.3023 78.1617 -0.363288
-45.2728 91.5258 -9.36437
-45.4201 90.4584 -7.92684
-45.3851 90.3303 -8.52448
-45.5543 89.5862 -6.73736
-45.5181 89.0738 -7.22148
-42.771 95.521 -19.3395
-36.6093 95.4661 -19.2203
-35.6944 95.2282 -19.3335
-35.6207 94.7464 -19.5002
-37.2491 94.6 -19.5313
-37.3655 95.1063 -19.4189
-35.956 93.9046 -19.5223
-34.5224 93.0629 -19.5512
-35.3525 94.6427 -19.5194
-34.2117 93.4899 -19.5216
-33.7886 94.1669 -19.5051
-40.9654 95.5088 -19.3686
-42.771 95.521 -19.3395
-42.7462 95.216 -19.5149
-38.5954 95.46 -19.2873
-44.3254 94.2096 -14.5875
-44.7011 93.8863 -11.4987
-44.4357 94.4536 -11.5132
-44.3557 94.5878 -12.2456
-44.4029 94.4292 -13.2174
-43.8852 94.8623 -15.0224
-43.7607 95.2648 -14.5356
-43.6485 95.8321 -14.9357
-43.6512 95.9846 -16.2669
-43.5155 96.2469 -16.5453
-43.0863 96.1188 -17.7881
-43.2254 95.7772 -18.7646
-43.3655 96.3628 -16.7902
-43.1852 96.5945 -16.5319
-42.9449 96.4298 -17.1395
-43.1931 95.6247 -19.0802
-44.9771 93.4533 -10.5582
-45.0116 93.6607 -9.42937
-45.1553 92.8067 -9.61148
-46.3305 75.3071 3.73315
-46.3794 76.71 4.75932
-46.329 76.2281 3.61494
-46.3094 77.3688 4.25211
-46.3863 77.0882 5.47092
-46.2599 76.9113 6.30139
-46.3989 76.0635 2.58364
-46.3065 77.1553 1.23426
-46.3472 76.5453 1.62767
-33.5005 60.6377 16.7586
-30.7693 59.3202 16.8294
-30.8433 59.6008 16.8171
-31.061 60.0095 16.8655
-32.008 61.2416 16.8891
-31.8354 61.0708 16.9062
-30.9716 60.8634 16.9844
-33.6331 62.2053 16.8061
-32.1312 62.8457 16.8918
-31.7031 61.8088 16.917
-33.6862 61.2904 16.7871
-34.5682 61.3392 16.74
-34.7341 62.3273 16.6884
-37.8133 70.4946 16.4842
-36.993 69.7321 16.5097
-37.0955 68.6281 16.5403
-42.2934 73.7822 16.0738
-43.7285 74.2031 16.0128
-41.5734 72.6599 16.2072
-42.0865 73.9347 16.0843
-40.9981 72.3366 16.2294
-38.8606 72.1902 16.3383
-38.395 71.4217 16.3689
-40.2311 73.3187 16.2303
-39.6495 72.3061 16.3054
-36.2655 68.2743 16.6069
-32.0286 65.0599 16.9707
-31.3765 65.8406 16.9367
-33.1062 65.9748 17.0095
-33.0077 65.5905 17.0435
-32.6986 65.249 17.0179
-34.8724 68.5854 16.6357
-34.1942 67.9816 16.5398
-36.0258 66.9019 16.4919
-34.0079 64.3157 16.84
-34.393 63.8766 16.7816
-35.439 65.0599 16.7894
-34.8065 65.1514 16.8701
-33.8589 66.0175 16.9725
-34.6906 66.0968 16.7758
-35.211 66.475 16.5961
-35.2066 67.0849 16.5134
-35.548 65.31 16.756
-33.9251 63.3886 16.8256
-46.0711 81.0651 14.0341
-46.0273 83.5537 14.8498
-46.0894 82.5656 13.9613
-46.092 83.3707 14.3821
-45.2086 78.7839 15.7454
-45.525 81.4311 15.5462
-45.5422 83.7367 15.5121
-45.7466 83.5903 15.3471
-45.9361 83.9685 15.0697
-44.8846 78.9364 15.8446
-44.3734 78.6192 15.9304
-44.4632 75.0265 15.9683
-46.119 82.6388 12.5547
-46.136 83.7001 12.1848
-46.1669 83.2853 11.59
-46.122 80.327 11.3858
-46.1315 81.0529 11.3849
-46.1864 82.4985 11.2358
-46.0818 81.7482 13.6477
-46.0901 81.1017 13.1124
-46.2875 77.8811 7.1293
-46.2399 80.4124 9.34957
-46.1906 78.9364 9.81463
-46.2346 78.4057 9.40404
-46.2018 79.6378 10.4757
-46.1746 80.5954 10.834
-46.2668 79.3755 7.9383
-46.2415 79.9916 8.23035
-27.4117 94.5085 -19.3839
-30.4765 94.5085 -19.4854
-29.4865 94.5207 -19.4437
-28.645 94.8684 -19.339
-27.7861 94.7769 -19.3681
-24.8586 95.033 -19.2515
-27.9389 94.2462 -19.3958
-32.5662 94.5146 -19.4619
-29.1872 93.6424 -19.4411
-11.4624 96.6128 -16.927
-11.3238 96.8446 -16.4124
-12.593 96.6677 -16.8324
-21.6688 96.5213 -17.1373
-25.6746 96.3811 -17.5493
-20.7537 96.3993 -17.4475
-19.8043 96.5274 -17.1803
-19.6723 96.747 -16.5618
-27.111 95.1245 -19.2331
-26.7116 95.4173 -19.0373
-28.0948 95.3136 -19.1234
-27.8815 95.5759 -18.881
-27.8633 96.1676 -17.9869
-29.1195 95.8321 -18.5911
-14.3653 96.8263 -16.5017
-13.0017 96.8019 -16.5034
-15.0733 96.9788 -16.0367
-18.4449 96.6067 -16.9204
-17.3549 96.8995 -16.1362
-9.53711 96.8019 -16.6057
-6.10182 96.8568 -16.4208
-3.47152 97.2167 -15.7149
-6.63518 97.0093 -16.0695
-5.93476 97.1801 -15.6424
-4.13353 97.3021 -15.45
-1.54641 97.418 -15.0925
-1.07978 97.1984 -15.6766
-8.49723 97.0398 -16.0422
4.32618 97.4302 -15.1901
3.96531 97.5827 -14.6885
1.65562 97.4607 -15.1794
2.75099 97.6437 -14.306
1.61518 97.6254 -14.5377
1.23375 97.7596 -13.0584
-1.93222 97.6071 -13.4957
0.501519 97.5705 -14.4893
-1.09051 97.5522 -13.9349
-0.173859 97.5705 -14.1553
9.01071 98.644 2.26003
9.21924 98.6562 2.81128
10.45 98.6562 2.77662
11.5669 98.6623 3.01749
11.8851 98.7172 3.7282
6.19334 98.6562 -1.0058
6.94586 98.5952 1.59903
5.02536 98.5586 -1.87648
4.19722 98.6379 -0.882214
4.8979 98.644 -0.102858
6.21632 98.583 0.504718
7.57327 98.583 2.18563
5.61168 98.5952 1.69502
5.58562 98.5647 1.10346
5.39816 98.5159 -2.70494
7.83269 98.5647 -2.60684
10.5759 98.5891 -4.84682
10.274 98.6135 -4.7352
11.6495 98.5525 -4.92509
7.09494 98.6318 -4.64709
5.63541 98.6745 -3.83359
7.72374 98.5281 -5.00548
9.12454 98.5952 -4.77012
8.69528 98.2597 -5.41806
9.04273 98.2109 -5.50921
8.46387 98.4549 -5.10901
6.52877 98.1865 -5.57553
10.4621 98.2719 -5.39807
3.10668 98.1072 -7.85913
3.24943 98.095 -8.4329
3.57011 97.9852 -5.98581
1.37832 97.9547 -6.67257
2.1883 97.9486 -6.32883
2.6459 98.034 -7.06524
0.82053 98.0645 -7.54018
2.50189 98.0279 -9.14368
2.22454 98.0096 -10.2423
5.24654 98.1682 -5.7766
1.08076 98.0462 -11.6517
1.20222 97.9669 -12.1312
-0.012614 98.0828 -8.47465
1.51942 98.0828 -7.64834
2.30608 98.0828 -8.38084
1.73864 98.0767 -8.46281
0.464896 98.0523 -11.3096
19.1101 97.4607 16.5728
18.4294 97.2045 16.9217
18.2424 96.8995 17.1432
18.0428 97.3143 16.7733
16.3105 97.4119 16.7232
13.5742 97.6498 15.2329
11.7715 97.7473 14.6094
11.8173 97.8571 14.0915
13.8472 97.8998 14.0836
13.7469 97.5034 15.834
13.0036 97.9425 13.5603
14.2638 98.0889 12.9027
11.3023 98.3451 9.13164
12.4346 98.2841 11.3992
11.9552 98.3207 10.4958
13.5024 98.2475 11.9033
10.2986 98.3146 9.45462
9.37499 98.5525 5.44794
9.9784 98.5891 5.17346
10.6033 98.7111 3.61305
10.1461 98.7172 4.08858
10.2274 98.6928 4.33112
10.1556 98.6196 4.94549
12.1524 98.7416 4.05739
10.3558 98.5769 7.59865
9.6787 98.5769 7.62913
8.83712 98.4915 8.00447
9.33138 98.3878 8.65112
10.6547 98.5647 6.7926
8.30846 98.5159 7.80414
7.51853 98.5159 5.33267
6.62035 98.5159 7.24478
8.81013 98.5769 6.83043
8.87534 98.5281 6.04808
12.8616 91.1233 17.5217
13.3818 90.312 17.5571
13.9789 92.209 17.5017
14.8181 92.9775 17.4889
14.2023 94.9782 17.3162
3.96838 76.9296 17.8007
7.77768 86.512 17.6119
8.82712 87.6526 17.5924
7.39064 85.2372 17.6551
7.53296 83.9746 17.6835
6.59446 83.7794 17.6695
4.36014 81.5775 17.7552
4.71461 82.8157 17.7099
4.97486 84.1027 17.6464
3.46352 77.3322 17.8025
2.66902 77.3566 17.8082
3.28147 78.2776 17.7553
3.06808 80.5771 17.7502
1.74604 79.4853 17.7329
2.26884 78.5216 17.6888
2.6392 75.8134 17.8361
3.50188 76.3318 17.8063
10.4709 88.6529 17.5914
11.5109 89.9643 17.5417
9.68752 88.1711 17.5839
13.4138 95.5576 17.2999
14.1443 95.9846 17.294
15.0085 96.2408 17.2847
16.3144 96.6372 17.2718
16.9625 96.6616 17.2621
17.6067 97.0154 17.0798
0.0234552 72.8978 17.9265
-1.00682 72.4403 17.9132
0.966192 75.5572 17.887
1.47013 76.0269 17.8521
0.404415 74.3251 17.9052
0.864528 74.6972 17.9105
-3.76201 70.8484 17.9068
-5.03916 70.6837 17.8532
-8.47779 72.2878 17.7202
-9.21398 71.4827 17.7592
-7.6332 71.6901 17.7618
-6.87172 71.1838 17.7722
-10.4213 69.8297 17.7769
-2.46356 71.6596 17.9008
-3.53735 71.6535 17.9042
-1.74288 72.8002 17.8884
-3.42169 72.3183 17.8683
-30.0768 59.7655 16.8015
-29.72 60.4547 16.9777
-25.4117 65.8406 17.1614
-24.0132 66.414 17.2793
-23.1228 65.0172 17.2831
-27.7052 64.6817 16.9088
-27.8286 65.3588 16.8366
-28.7914 65.2368 17.0144
-29.3784 65.3344 17.0527
-29.836 63.413 17.0025
-29.8485 64.6024 17.0008
-30.0349 60.8512 17.0016
-29.9204 61.2233 17.0256
-30.5806 62.2907 16.946
-27.0228 65.3771 17.0313
-26.5159 65.5173 17.1012
-21.8723 65.9016 17.3071
-21.7443 65.1636 17.3021
-21.0715 64.944 17.3543
-19.6696 66.109 17.391
-19.8773 65.56 17.4168
-18.9515 66.0358 17.4582
-10.3726 71.3302 17.7052
-11.7458 70.641 17.6713
-10.898 71.3973 17.6901
-13.0275 71.0923 17.5908
-12.9853 71.7572 17.5939
-12.5359 72.172 17.5942
-17.0098 69.9883 17.5087
-14.5428 69.7443 17.5687
-14.2141 70.9642 17.4228
-15.0129 70.5129 17.482
-15.8029 70.2506 17.5438
-17.3609 69.3967 17.502
-17.005 68.195 17.5757
-17.6917 66.4079 17.4721
-17.3615 67.1093 17.5493
-45.9949 81.4372 -4.08699
-46.012 81.4738 -3.36374
-45.9403 83.5232 -4.35958
-45.7607 86.0789 -4.81136
-45.8599 84.8956 -4.28888
-45.639 87.2622 -5.82923
-45.5792 88.659 -6.39414
-45.6334 88.4943 -5.73455
-46.0634 80.3393 -2.70332
-46.1184 79.955 -1.93262
-46.0964 79.4548 -2.13797
-46.2836 79.1559 -0.996663
-46.2396 79.6866 -1.40736
-46.2809 78.6375 0.745229
-46.2741 78.2105 0.132154
-45.3416 91.6112 -8.54109
-45.412 92.0565 -6.81302
-45.5229 89.9033 -6.94728
-45.5994 89.9155 -5.81595
-45.471 91.0805 -6.52711
-36.6093 95.4661 -19.2203
-35.6944 95.2282 -19.3335
-35.555 95.2953 -19.306
-36.287 94.4475 -19.5286
-37.126 95.6003 -19.1288
-34.7331 94.8745 -19.4279
-34.6227 94.7037 -19.478
-34.0288 94.5939 -19.476
-39.1596 95.7528 -19.0453
-41.2048 95.7101 -19.1731
-42.8303 95.7528 -19.0647
-41.7231 95.7833 -19.073
-43.9151 95.0148 -13.8319
-44.7989 94.1425 -10.1344
-44.6775 94.4536 -9.72331
-44.2306 94.7525 -11.2567
-43.9636 95.0452 -11.592
-44.4866 94.6671 -10.1134
-43.9327 95.1063 -12.7146
-43.8766 95.0758 -13.2039
-43.7613 95.4478 -13.7017
-43.6839 95.9419 -13.9786
-43.5741 96.2347 -15.7336
-43.4506 96.3932 -14.9734
-43.4424 96.4603 -16.0168
-43.0863 96.1188 -17.7881
-42.7957 95.9175 -18.6842
-43.1852 96.5945 -16.5319
-43.0197 96.686 -16.2194
-42.9449 96.4298 -17.1395
-44.9121 94.0083 -8.12488
-44.8155 94.2157 -9.11715
-45.2225 92.642 -8.65812
-45.0765 93.5265 -8.15599
-46.3831 76.5697 3.11749
-46.3372 77.7713 4.69303
-46.3307 78.1312 3.76231
-46.3265 78.4301 4.39133
-46.3089 78.5155 4.88739
-46.3388 78.3752 5.52846
-46.2701 78.2715 6.209
-46.2904 79.3572 6.71782
-46.4025 76.9357 2.49137
-46.3536 78.7229 2.11859
-46.3314 78.6009 1.50813
-30.3873 60.5401 16.9508
-32.8558 63.2849 16.8356
-31.6558 63.9803 16.8997
-31.0809 63.5411 16.9053
-36.6415 72.4525 16.4635
-36.4492 71.2631 16.5337
-35.9643 70.1164 16.5371
-35.0733 69.1466 16.6323
-35.9201 68.8172 16.6119
-43.9265 75.0509 16.0103
-42.7772 75.3193 16.0744
-41.5532 74.9046 16.1437
-41.0816 73.3919 16.1815
-41.1543 74.0567 16.1495
-39.0424 73.5383 16.3021
-38.6896 74.8009 16.3001
-38.066 73.4468 16.3728
-39.7622 74.5325 16.2436
-31.7764 64.5353 16.9269
-31.2903 65.188 16.9744
-32.6474 64.273 16.8666
-30.5013 65.3344 16.9781
-30.748 66.1273 16.9085
-32.1118 66.414 16.87
-32.8649 67.3533 16.6778
-33.4907 67.8108 16.5625
-33.3905 66.969 16.7612
-33.729 65.5539 17.0338
-33.7018 65.2185 17.0162
-33.3604 64.4865 16.9123
-34.8535 69.8663 16.6265
-33.6339 69.4638 16.7091
-33.408 68.866 16.6813
-33.993 68.1219 16.5542
-33.7534 63.9559 16.8443
-34.5179 65.3161 16.9316
-33.8412 67.1825 16.6473
-45.9151 85.7374 15.0684
-46.1074 85.0908 14.2061
-46.158 86.7133 13.8301
-46.0935 85.9874 14.4657
-46.0627 86.0545 14.6443
-46.0947 84.2857 13.4268
-45.1528 79.6317 15.7597
-45.5422 83.7367 15.5121
-45.1763 81.9129 15.7712
-45.757 86.3656 15.2839
-45.6054 86.512 15.4409
-44.8742 81.73 15.8732
-43.587 78.5704 15.9789
-42.3282 79.3816 16.0582
-43.0405 80.1502 16.0274
-43.9459 81.608 15.9682
-44.4541 82.4741 15.918
-43.8211 77.259 15.9861
-46.1125 83.9502 12.9253
-46.1836 84.7675 11.4738
-46.1507 84.92 11.9323
-46.3504 84.2125 10.3597
-46.2357 80.7052 10.3254
-46.2394 81.6812 10.6036
-46.3 82.529 10.4181
-46.2962 82.8523 10.6255
-46.281 78.979 6.88113
-46.2465 82.8462 9.18158
-46.2188 79.9245 9.79918
-46.2338 81.6385 8.02634
-46.2434 80.6686 8.50539
-46.2815 79.2901 7.65116
-46.2631 80.8882 7.66014
-31.2586 94.8745 -19.4141
-28.645 94.8684 -19.339
-27.7861 94.7769 -19.3681
-27.111 95.1245 -19.2331
-10.1518 97.0276 -15.9476
-11.4602 96.9544 -16.0923
-24.0026 96.6494 -16.708
-22.0214 96.7409 -16.4417
-25.6906 96.5335 -17.094
-27.6365 96.3505 -17.5362
-19.5351 96.9605 -15.7902
-28.428 95.4234 -19.0335
-28.3108 96.3201 -17.6089
-30.0107 96.0517 -18.3159
-30.0465 96.2347 -17.9539
-29.156 96.3018 -17.742
-28.7394 95.5149 -18.952
-31.0799 95.7955 -18.7309
-12.7819 96.9727 -15.9945
-12.7964 97.0459 -15.7268
-15.7297 97.1069 -15.365
-14.1688 97.1801 -15.0797
-17.6611 97.0398 -15.3523
-1.65871 97.4241 -15.0045
-6.78102 97.1618 -15.6408
-2.57905 97.4485 -14.8819
-5.43642 97.3387 -15.0548
-1.75541 97.4851 -14.6656
0.749425 97.4607 -15.0983
-8.59271 97.1557 -15.6938
-2.251 97.662 -13.2339
0.383493 97.8205 -12.7202
-3.86668 97.5461 -13.8362
-2.50562 97.5156 -14.1689
-4.23867 97.4424 -14.3507
7.27525 98.6196 3.158
9.15446 98.6501 2.99148
4.54759 98.6135 -1.38317
6.00108 98.583 2.42269
1.5918 98.461 -2.37665
4.37608 98.4976 -2.32158
3.5975 98.583 -1.50462
3.44201 98.6196 -0.804943
3.46902 98.5891 -0.0762252
4.75668 98.5769 0.456753
6.49208 98.6074 2.88406
4.80482 98.5769 1.6004
4.57555 98.5586 1.95204
4.37891 98.5525 0.969858
4.13677 98.5525 0.516566
2.43613 98.461 -2.6873
3.42703 98.4854 -3.02311
6.44186 98.6318 -4.57679
4.42768 98.6318 -4.79242
5.04841 98.5403 -5.16592
6.20304 98.4915 -5.11673
3.53955 98.6135 -3.85748
2.76878 97.9974 -5.91641
3.57903 98.1316 -5.66567
0.254209 97.9486 -6.45012
0.961108 97.9486 -6.23657
0.51718 97.9852 -7.06761
-0.763171 98.034 -7.61307
-0.684648 98.0828 -8.15797
-2.03859 98.0279 -7.94723
1.17672 97.9791 -9.92477
1.35063 98.0157 -9.10611
-0.107151 97.9608 -10.5278
-1.20231 97.9852 -11.1876
4.04659 98.4732 -5.22202
-0.101493 97.9913 -11.937
-2.91271 98.0218 -8.49932
-2.54478 98.0218 -8.81635
0.266442 97.9791 -9.74999
-1.24892 97.9852 -11.8308
13.7676 97.3631 16.4404
13.8086 97.2289 16.7461
15.1129 97.0459 16.9846
16.1968 97.1435 16.9987
11.8233 97.2472 16.6374
12.3523 97.2899 16.6115
9.1934 97.4973 15.364
10.7401 97.5461 15.3441
9.39575 97.6742 14.5958
10.1739 97.8205 14.0397
10.1216 97.8998 13.4642
12.9635 98.0157 12.9812
11.8018 98.0157 12.7821
11.6144 98.278 11.2058
10.8704 98.2292 11.3392
10.2916 98.3085 10.0622
8.89663 98.3146 9.96722
8.49847 98.3085 9.50896
8.36079 98.3512 8.72086
8.72791 98.6196 4.73884
9.25425 98.7172 3.79235
8.87952 98.6867 4.27713
7.65709 98.5647 7.00984
4.63694 98.4915 7.10375
5.37536 98.4915 6.87014
6.04743 98.3268 8.16685
5.64135 98.4122 7.66433
7.32724 98.5098 5.91431
6.62134 98.4671 5.49663
6.99781 98.5464 4.73129
6.23838 98.4976 6.44079
5.47699 98.4793 7.22258
12.8054 92.27 17.4616
11.5946 91.3489 17.4911
13.5379 93.5204 17.3942
13.2702 94.8257 17.2912
6.92337 85.5849 17.6332
5.82064 86.024 17.5935
6.67462 88.4211 17.4919
9.10882 89.2629 17.5096
9.36009 90.0558 17.4673
10.1035 89.7996 17.5143
6.48868 84.371 17.648
3.72483 82.1325 17.7083
3.72937 83.5049 17.6312
4.5584 86.2863 17.5607
2.21379 76.8686 17.8408
1.54085 78.0519 17.679
1.73327 77.3017 17.7894
1.69915 80.6442 17.6975
1.92927 82.1081 17.6508
1.44832 80.0038 17.7216
0.878618 79.4121 17.6956
1.07448 78.6436 17.6208
-0.715113 80.1929 17.6746
10.8821 90.1717 17.5242
11.5662 94.9111 17.2621
12.1801 95.7894 17.2589
13.3464 96.625 17.1436
12.7076 96.2774 17.2125
14.146 96.6067 17.1521
15.4915 96.6738 17.1872
16.3144 96.6372 17.2718
-0.994949 73.6236 17.893
-1.34563 74.6057 17.8682
-0.323271 73.8127 17.9065
0.174419 76.6185 17.8533
1.3893 76.6917 17.8342
-0.278843 75.2644 17.8537
-4.38804 72.111 17.8498
-5.58741 71.1228 17.8078
-8.66607 73.8493 17.6895
-8.76531 72.7392 17.6973
-7.02499 72.727 17.7625
-7.43777 73.8554 17.7399
-9.58994 72.0439 17.7198
-5.89122 72.1598 17.7838
-1.76068 73.6724 17.9015
-2.18624 73.4894 17.9007
-2.83981 73.2577 17.8851
-5.37494 72.4281 17.8145
-4.8655 73.6358 17.8395
-26.4222 66.1029 17.1375
-25.5248 66.8349 17.1871
-25.4508 67.5302 17.1993
-25.8013 69.232 17.1454
-23.5345 67.335 17.2991
-23.1624 66.3469 17.3045
-24.0371 68.2316 17.245
-22.1522 66.4323 17.352
-27.8931 66.7983 17.0625
-27.4003 66.2676 17.0408
-27.1729 65.9199 17.0335
-28.4388 66.0602 16.9375
-28.4098 66.5787 16.9806
-29.0194 66.3469 16.9649
-20.6847 67.6156 17.4734
-20.8534 66.17 17.3571
-19.8478 66.6153 17.3778
-18.8566 66.6397 17.4637
-11.1033 72.3366 17.6307
-13.0928 72.666 17.6157
-14.1009 71.3668 17.4373
-13.326 72.1049 17.5866
-12.5023 73.6175 17.5656
-11.8746 72.8612 17.5793
-17.7236 69.4333 17.492
-17.407 70.1042 17.4942
-15.8966 71.7389 17.4783
-15.4057 72.1963 17.4889
-16.22 71.4156 17.5053
-17.2122 70.7386 17.4848
-18.1071 67.7803 17.5928
-17.8726 68.4573 17.5676
-18.3887 67.1886 17.5424
-45.9886 82.9986 -3.00474
-45.9216 84.6455 -3.41426
-45.8075 86.6828 -4.05471
-45.7121 88.2687 -4.9871
-45.6651 89.4276 -5.25824
-46.1247 81.9251 -1.98554
